ply
format ascii 1.0
element vertex 1342
property float x
property float y
property float z
property uchar red
property uchar green
property uchar blue
end_header
0.151658 4.31912 0.446731 180 175 151
2.14183 3.15332 -1.28999 153 146 122
3.2343 3.25349 -1.48809 108 101 73
3.18234 3.59343 -0.42443 108 99 69
2.71195 3.09995 -0.13051 168 159 125
2.30965 3.14917 -1.23287 166 159 137
2.64259 3.47473 1.50828 144 133 106
2.65715 3.16202 -1.01393 58 51 33
3.04179 5.40948 0.464709 152 149 124
2.9827 2.84856 -1.99296 85 82 68
2.21456 3.18234 -0.719579 81 76 56
2.79082 3.23581 -1.24661 107 99 74
2.10392 3.12831 -0.546515 100 94 72
2.98452 3.28662 0.924735 176 168 151
2.08717 3.14347 -0.515963 93 87 65
3.07211 2.91422 -1.99368 92 89 73
2.10294 3.1215 -0.452404 157 152 133
3.10698 3.21472 -0.506479 86 78 48
2.7944 3.04683 -0.038279 107 97 66
2.1886 5.6961 3.46544 82 77 54
2.62415 3.04945 0.0603177 111 101 69
-0.230625 3.88558 0.297372 168 162 134
3.22637 3.23642 -1.48458 101 95 68
2.56008 3.09175 -1.29462 160 153 129
3.28283 3.50647 -1.36734 93 86 59
2.58984 3.05473 -1.32588 170 163 141
3.57736 3.30504 -2.00754 55 51 45
2.20537 3.02066 -0.484599 123 118 96
3.77738 4.29643 0.444499 140 138 121
2.28586 3.05468 -1.58339 157 152 130
3.97724 4.02263 0.288353 133 131 118
2.33338 3.00941 -1.54375 178 174 157
-0.131219 3.76628 -2.00692 100 94 77
2.66339 2.99703 -0.998438 111 102 73
-0.00805769 3.98525 -2.01257 79 76 63
2.64008 2.98245 -0.95573 130 125 99
0.61227 4.8801 4.77241 88 81 66
2.63795 2.96813 -0.894691 115 108 80
2.61586 3.04941 0.0328188 178 172 149
4.5432 2.78562 -0.474202 94 89 71
0.904459 5.11165 4.83259 101 94 77
2.37985 2.95576 -1.31877 123 110 82
2.61743 3.05704 -1.35038 153 147 126
4.40208 2.59525 -0.660528 68 65 45
2.91195 2.79777 -1.99516 90 86 74
4.42943 2.55485 -0.676645 120 118 98
2.88026 3.02339 -0.139612 159 152 124
4.42943 2.55485 -0.676645 120 118 98
3.05454 2.90406 -1.60769 109 103 74
4.51366 2.53657 -0.431748 122 118 97
1.65693 4.32026 -2.01041 64 61 49
2.95075 2.82825 -1.77723 119 112 91
2.9754 3.10221 -0.235915 110 100 67
4.52657 2.56937 -0.224197 118 112 80
3.21508 5.17228 0.866942 94 88 59
2.81589 3.15184 -0.248406 93 87 60
2.81587 3.54508 1.40839 137 129 106
4.52312 2.57251 -0.0743194 118 113 84
3.20809 5.18903 1.86956 114 107 79
2.81432 3.25993 0.83453 119 107 74
3.06982 3.26957 -0.335016 109 100 65
4.52112 2.57116 0.0181977 117 111 81
3.19903 5.15968 1.89671 136 131 110
2.96861 2.94897 -1.46503 140 132 105
3.09112 3.26162 -0.263518 102 93 63
4.32518 2.59734 -1.85409 83 79 61
2.90874 4.95285 -0.779222 22 21 16
2.97789 3.14365 -0.238777 88 79 52
3.20369 4.97389 1.19002 124 118 92
2.75768 3.5579 1.61342 191 184 173
3.16511 3.28241 -0.270591 137 132 101
2.74072 2.68271 -1.73171 145 139 118
3.39469 5.07312 1.56437 110 104 73
3.08822 2.92271 -1.99368 77 76 66
3.25453 5.10623 1.81453 116 110 84
3.10875 3.01474 -0.594676 84 74 46
3.28405 5.08548 1.80628 117 111 81
3.12637 3.01124 -0.53397 169 161 133
3.27713 5.10126 1.81599 119 113 82
3.08996 3.00873 -0.511501 135 122 90
3.31345 5.04085 1.77787 115 108 79
3.03872 3.18519 -0.367164 100 88 57
3.27075 3.34833 -1.44723 97 89 61
2.65888 2.42437 -1.53884 97 92 75
3.30309 5.06183 1.79187 115 110 80
3.08185 3.1381 -0.255887 129 122 91
3.19644 3.56356 -0.602345 116 108 78
2.50064 2.17421 -0.664077 68 65 52
2.96898 3.37333 0.323637 122 111 76
2.25717 2.26545 -0.663819 76 72 59
2.94411 3.40727 0.466208 176 172 153
1.63699 4.18364 -2.01032 63 60 49
3.01483 3.39824 1.02064 145 137 119
3.52868 3.24427 -1.99454 75 70 55
2.56556 5.47246 -0.811137 59 56 44
1.63699 4.18364 -2.01032 63 60 49
2.88499 3.65095 1.46427 148 141 122
3.4651 3.74014 -2.00866 70 67 59
2.52949 5.40878 -0.779169 38 36 26
3.67676 4.53151 0.519012 64 59 40
2.8346 5.69477 -0.0603878 159 156 139
1.63402 4.16517 -2.00963 62 59 49
3.03655 3.20724 -1.25618 150 144 115
2.8346 5.69477 -0.0603878 159 156 139
2.1919 4.40164 0.962697 100 94 73
3.18211 3.05215 -0.604487 98 89 58
3.81245 3.67727 -2.00278 71 67 57
3.1315 5.94741 3.16828 161 157 143
5.38518 5.81929 6.04455 103 96 65
3.09884 3.20636 -0.256923 85 75 48
-0.465772 3.65046 -0.448754 160 151 122
1.71682 4.71692 -2.01189 56 52 42
1.62753 4.12686 -2.01308 77 73 58
2.83223 3.33548 -2.20667 150 146 128
1.61901 4.07334 -2.01022 67 64 52
3.1201 3.09708 -1.32084 135 128 108
-0.377292 3.96809 0.959472 144 137 105
2.56479 5.35405 -1.99911 29 28 23
3.39726 4.9081 -0.669204 77 73 55
3.18619 3.08456 -0.685577 130 123 95
-0.199119 3.8903 3.75893 88 77 47
2.98878 5.65964 -1.98171 40 37 28
3.46961 4.81429 0.471843 122 119 89
3.21857 3.22945 -0.091807 158 150 122
-0.227477 4.04114 -1.72289 57 53 41
2.62807 5.3924 -1.75587 64 60 49
3.43036 4.88149 1.67839 112 105 76
3.1381 3.34282 0.0105306 119 112 91
-0.0996663 3.87495 -0.607828 97 91 64
2.83145 5.5929 1.97036 127 120 95
-1.6641 5.07396 6.02782 182 176 161
2.8524 5.58381 1.97649 124 118 96
0.386926 3.95373 1.73344 144 138 111
1.68722 4.52771 -2.01018 60 56 45
1.61499 4.04531 -2.01017 69 65 53
3.1941 3.1128 -1.48217 131 120 89
0.45367 4.76645 4.67177 75 69 53
1.68406 4.50197 -2.01082 64 59 48
2.33653 4.2987 -0.385632 98 91 67
3.12063 3.45214 -0.537703 100 90 58
2.19288 3.15433 -1.24395 160 153 137
1.67895 4.47799 -2.00881 62 58 46
2.37571 4.28518 -0.438321 114 110 81
3.10622 3.51952 0.190649 122 114 92
0.707391 4.9837 4.84481 90 82 65
3.08224 5.44201 1.26256 147 142 120
3.13728 5.40839 1.79188 141 136 110
3.29471 3.07936 -1.65465 116 109 84
2.32702 3.24463 -1.18796 153 147 125
2.98937 5.39676 1.97417 129 123 97
5.53315 5.52254 6.01839 105 97 65
3.24402 3.15453 -1.49028 122 116 95
3.08506 5.36015 1.96093 101 95 69
1.59405 3.94073 -2.01061 94 89 70
3.22643 3.27913 -1.26113 107 98 70
2.94576 2.82526 -1.63595 142 139 118
2.55401 4.98375 -2.01071 49 46 37
3.15732 3.50588 -0.574477 124 117 85
2.94805 2.82968 -1.58197 161 153 126
2.74952 5.14878 -1.87865 53 49 37
1.81107 3.96065 -1.58417 146 140 118
3.20489 3.51355 -0.752196 114 107 76
2.7804 3.13166 -0.294085 142 137 112
3.1192 5.37436 1.96719 120 114 88
1.80757 3.9762 -1.54846 149 143 122
3.20917 3.55388 -0.753822 114 108 78
2.75393 3.09796 -0.20068 164 158 137
3.09032 5.34938 1.96906 115 108 79
2.01611 3.92181 -0.0839753 130 122 99
3.35366 3.11829 -1.96333 118 113 96
2.76044 3.10325 -0.195819 94 84 54
6.48441 7.32508 4.92893 124 115 80
7.20551 5.53013 5.54698 108 97 62
3.43324 3.17512 -1.9873 102 96 76
2.69214 3.23485 0.112601 143 137 112
6.23912 7.17105 5.73707 128 121 94
2.70176 3.45307 0.926665 144 139 123
2.18669 3.23682 -1.51414 107 101 73
2.15031 3.15832 -1.4115 86 76 55
2.23296 3.23609 -1.16197 157 151 125
2.29748 3.22119 -1.21006 129 123 99
2.27729 3.22939 -1.15031 164 156 128
2.22007 3.23755 -1.09204 161 153 125
2.23584 3.22104 -1.05457 135 129 102
2.43547 3.27717 -0.0377302 162 157 138
2.49596 3.23683 0.00609886 170 164 141
2.51412 3.23482 0.162788 151 145 118
2.82796 3.39797 1.03971 149 143 123
2.28978 3.17449 -1.4089 96 89 64
2.28485 3.17134 -1.39703 160 154 134
2.32092 3.14704 -1.29233 126 121 99
2.32152 3.18176 -1.21941 139 134 111
2.31213 3.20278 -1.20816 118 113 90
2.18328 3.07263 -0.623812 78 75 55
2.20084 3.06358 -0.389333 174 169 147
2.57275 3.23596 0.110133 94 82 53
2.60667 3.19993 0.153189 177 172 150
2.25582 3.09215 -1.72449 166 162 150
2.35105 3.1344 -1.3508 148 145 126
2.39958 3.1177 -1.34145 171 165 144
2.55299 3.16962 -0.985548 103 97 70
2.30739 3.00907 -0.544462 159 156 134
2.91301 3.22175 0.837196 151 144 118
2.4572 3.11188 -1.48554 118 110 85
2.37394 3.08546 -1.39848 164 157 136
2.51151 3.11312 -1.36028 98 89 63
2.54297 3.0845 -1.36454 99 89 63
2.47096 3.12258 -1.32552 159 152 131
2.65055 3.13028 -0.881939 129 120 84
3.31463 3.39479 -0.957503 151 146 125
2.67595 3.13558 -0.856418 151 142 111
2.60198 3.05351 0.029746 129 123 93
2.35128 2.96751 -1.57905 105 99 73
2.57259 3.04768 -1.35344 112 102 74
2.80763 3.08836 -0.654282 150 143 117
2.81473 3.10039 -0.625858 174 169 142
2.81777 3.10987 -0.614294 128 117 87
2.88101 3.09233 -0.208146 102 92 58
4.48601 3.58081 0.75679 53 49 29
3.65075 3.22782 1.1728 173 163 121
2.51525 2.98059 -1.99896 31 28 22
2.52225 2.98402 -1.57584 126 122 100
4.005 3.51695 -1.35868 88 85 65
4.00539 3.51723 -1.35876 86 83 64
2.66384 2.94961 -0.884144 140 135 110
2.65598 2.95909 -0.872845 146 141 117
2.73978 3.01041 -0.792938 178 171 145
2.95742 3.03797 -0.551613 176 170 143
4.53172 3.50294 0.100169 139 137 109
4.5268 3.51816 0.615469 70 65 37
4.49858 3.53458 0.731108 53 48 27
4.49858 3.53458 0.731108 53 48 27
4.47724 3.54977 0.753907 122 118 95
2.99045 2.95151 -0.736214 144 138 108
6.25105 3.81573 1.94467 136 131 110
2.49864 2.85993 -2.00554 119 113 96
4.4245 3.13618 -0.126913 96 93 78
2.63727 2.81838 -2.00743 88 83 68
2.64958 2.80488 -2.00855 90 85 71
4.66133 3.18725 -0.457946 74 69 48
2.67997 2.57721 0.62778 156 153 140
4.45458 2.92613 1.65511 172 168 157
4.44986 2.9216 -0.269109 133 132 114
4.45176 2.92304 0.0895124 138 136 118
2.69534 2.66848 -2.00747 124 120 107
2.75452 2.67673 -2.00559 102 98 89
2.51819 2.40693 -0.344668 79 72 46
2.57105 2.15094 -0.633034 94 89 63
4.50492 2.5699 0.544119 126 121 94
1.75087 4.95713 -2.0115 57 54 45
2.2014 5.66127 0.360286 114 111 91
2.39063 5.53625 -0.698327 103 100 85
1.75062 4.46593 2.0548 89 81 58
2.69041 6.03557 3.948 100 93 66
2.75876 5.65408 2.01447 129 124 99
1.59681 3.93178 -2.00932 70 64 52
2.84577 5.63418 1.25018 44 41 29
2.95607 5.42534 1.96811 123 118 93
1.85507 3.88155 -1.57207 113 107 82
4.29195 6.68015 -0.657681 91 88 65
3.2032 5.42502 2.03269 115 108 78
3.14519 5.27936 1.9717 133 129 106
5.6188 8.02548 4.43215 148 142 125
5.12255 7.43671 5.9263 90 80 57
11.2081 14.571 -7.39485 112 104 73
3.31692 5.19865 1.67906 138 134 111
1.7861 3.48876 -0.348893 142 135 112
1.80742 3.45248 -0.378489 150 145 123
3.95994 5.34625 -2.41146 98 94 72
2.09774 3.34567 -1.25402 81 74 52
2.51234 4.05434 -1.04057 108 102 81
1.90805 3.44803 -0.685163 134 129 107
1.90808 3.44812 -0.685116 134 128 106
1.9393 3.46992 -0.490107 157 151 122
1.94956 3.48267 -0.237774 182 178 160
1.98716 3.54774 -0.155247 181 176 158
1.95038 3.51135 -2.00858 79 75 64
1.94517 3.52156 -1.86912 131 126 109
1.34092 2.97323 -1.2977 89 85 71
1.95782 3.42266 -0.753328 134 129 106
2.00473 3.43205 -0.740088 130 124 95
2.00937 3.4395 -0.71435 120 113 86
2.01867 3.43956 -0.714045 149 144 119
2.0004 3.44758 -0.687811 119 112 85
1.98277 3.46536 -0.608128 150 146 124
1.9868 3.46718 -0.596682 152 148 126
1.9851 3.4628 -0.540049 148 142 118
1.99391 3.43632 -0.377335 67 61 39
1.91244 3.39475 -0.357276 151 146 122
2.09841 3.49001 -0.144189 176 172 152
2.71129 3.99277 0.392056 155 150 123
2.49894 3.75558 1.46631 77 68 44
2.08991 3.48149 -1.46904 94 87 68
2.07501 3.4285 -1.39864 59 53 35
2.1198 3.44346 -1.10453 74 68 48
2.00648 3.3797 -0.883177 139 134 110
1.97495 3.38907 -0.859506 148 142 120
2.01549 3.4198 -0.772889 121 114 86
2.05395 3.43744 -0.704589 154 149 126
2.05369 3.43111 -0.727605 158 153 129
2.08215 3.43215 -0.702091 129 118 87
2.08968 3.42316 -0.733075 136 124 87
2.07514 3.42727 -0.203446 158 151 127
2.16145 3.47894 -0.0332347 89 81 57
2.14977 3.48348 -0.0205396 151 145 122
2.37494 3.60989 0.112163 107 98 73
2.5411 3.67644 0.608383 87 79 52
2.04736 3.38421 -1.58361 154 148 127
2.1159 3.43415 -1.43081 79 72 55
2.05577 3.40782 -1.33336 129 124 103
2.5368 3.68572 -1.55624 123 115 90
2.06739 3.34969 -1.20551 149 144 121
2.11468 3.36242 -1.16731 152 146 125
2.1716 3.38064 -0.847669 160 155 129
2.13825 3.39674 -0.791715 122 112 81
2.15295 3.38967 -0.795483 147 141 113
2.11917 3.40885 -0.737255 156 149 123
2.08164 3.37177 -0.563474 83 74 52
2.08164 3.37177 -0.563474 83 74 52
2.16412 3.35507 -0.282093 167 162 138
2.34686 3.50038 -0.0109138 165 160 139
2.38341 3.54451 0.168632 101 92 63
2.5074 3.54571 0.369216 120 114 87
2.5488 3.6333 0.613753 92 81 55
2.5822 3.60525 0.857248 174 168 146
2.65924 3.60452 1.13832 156 149 121
2.66504 3.59898 1.14219 127 114 83
2.67345 3.59148 1.14328 160 151 123
2.53053 3.58552 1.46511 135 128 102
2.08816 3.32029 -2.0085 90 88 77
2.11985 3.33571 -1.29316 143 137 116
2.1548 3.32777 -1.26862 140 134 111
2.14994 3.34352 -1.23206 137 130 104
2.15184 3.33578 -1.25921 106 93 67
2.16161 3.34006 -1.25663 129 126 106
2.17986 3.34117 -1.20894 119 113 87
2.17448 3.35155 -0.969273 164 159 136
2.21564 3.35796 -0.8655 138 133 103
2.55009 3.49676 0.436452 135 123 91
2.5705 3.48833 0.361993 153 146 118
2.54906 3.48838 0.380729 117 109 82
2.6096 3.51432 1.42974 176 167 149
2.1197 3.28729 -2.00101 101 95 81
2.12053 3.27817 -1.58232 154 148 124
2.14204 3.25435 -1.58337 155 149 126
2.12778 3.27673 -1.33483 105 94 73
2.19922 3.24643 -1.11087 160 154 127
2.26059 3.30554 -0.991478 126 119 90
2.60982 3.12801 -0.892291 90 76 51
2.27379 3.28622 -0.85054 75 68 49
2.27379 3.28622 -0.85054 75 68 49
2.09027 3.15702 -0.532411 86 81 58
2.06918 3.16645 -0.450598 104 101 80
2.08344 3.15445 -0.447396 148 144 124
2.46766 3.36233 0.0454115 123 117 95
2.48386 3.33088 0.0359322 124 117 90
2.50077 3.38548 0.148818 93 86 59
2.59724 3.37114 0.259924 165 161 142
2.6229 3.44112 0.372941 164 159 136
2.71213 3.46525 0.966346 175 172 158
7.13454 5.99477 5.75175 131 126 96
2.16659 3.21691 -1.9923 121 115 100
2.15855 3.22935 -1.60703 130 125 103
2.14194 3.17193 -1.41147 147 141 120
2.13424 3.16081 -1.38283 121 112 85
2.28795 3.22692 -1.23766 109 104 83
2.28753 3.24258 -1.22332 136 130 106
2.27754 3.23033 -1.13629 160 152 122
2.224 3.2275 -1.06981 156 149 123
2.22473 3.22726 -1.06208 133 125 95
2.35178 3.28054 -1.0202 131 124 98
2.35179 3.28059 -1.02021 131 124 98
2.39941 3.26384 -1.05378 141 135 109
2.32857 3.29481 -0.995167 129 123 100
2.35004 3.28966 -0.942432 87 80 61
2.36 3.22644 -0.870882 63 57 43
2.13423 3.08023 -0.560931 115 110 84
2.11899 3.07878 -0.516362 115 110 83
2.12205 3.07147 -0.485942 148 145 124
2.94545 3.61905 -0.380794 145 140 109
2.19454 3.10172 -0.356503 128 124 103
2.21826 3.12967 -0.308142 139 133 111
2.31778 3.17898 -0.180516 134 129 111
2.49707 3.23035 0.024972 180 174 150
6.11623 5.22998 1.63539 157 151 125
2.73315 3.34498 0.407073 147 141 115
2.80243 3.32837 0.854486 130 122 92
2.3198 3.10529 1.0975 87 80 55
2.18315 3.1933 -1.99828 100 94 78
2.30538 3.17537 -1.4143 144 139 120
2.25458 3.13716 -1.30897 89 81 58
2.30784 3.16167 -1.23747 163 158 138
2.32963 3.13933 -1.23368 130 123 99
2.32282 3.20648 -1.20197 168 163 145
2.50686 3.21836 -1.05892 151 146 118
2.5068 3.21828 -1.05889 151 145 118
2.43979 3.19618 -0.916458 58 51 36
2.45098 3.18792 -0.925403 58 53 36
2.27155 3.10462 -0.738025 106 101 79
2.13755 3.05717 -0.486773 70 67 53
2.13744 3.05706 -0.486588 71 68 53
2.14829 3.04637 -0.503951 100 95 76
2.14829 3.04637 -0.503951 100 95 76
2.15007 3.04377 -0.497225 123 118 98
2.15007 3.04377 -0.497225 123 118 98
2.20872 3.08362 -0.359075 129 124 104
2.46233 3.13952 -0.105735 149 143 121
2.46923 3.13504 -0.106953 183 179 158
2.51044 3.22202 0.0142329 177 171 148
2.59756 3.20174 0.0825484 153 147 119
2.59838 3.18819 0.0609088 135 128 104
2.55488 3.24508 0.110697 91 77 48
2.89314 3.34498 0.674003 100 90 61
2.91852 3.29447 0.737257 131 121 87
9.24431 6.26446 6.04303 123 116 83
2.37386 3.16175 -1.46428 101 94 71
2.36315 3.10716 -1.38324 155 149 130
2.37087 3.10567 -1.37492 140 133 113
2.37826 3.10644 -1.36854 173 167 147
2.32693 3.13756 -1.28276 70 65 50
2.52781 3.17041 -1.26893 106 95 72
2.58583 3.21827 -1.16105 150 143 117
2.23813 3.03909 -0.62523 124 121 98
2.24486 3.03942 -0.632562 94 90 69
2.22475 3.01386 -0.484495 167 162 139
2.219 2.9585 -0.442656 128 123 102
2.56876 3.12004 -0.121616 176 172 148
2.57354 3.16774 -0.0142972 180 176 155
2.56456 3.11517 -0.087702 146 140 112
2.61785 3.15355 0.12847 159 153 129
2.97995 3.24334 0.793818 96 89 62
7.80437 5.19606 4.26229 102 94 64
2.26752 3.07419 -1.99667 99 94 79
2.30031 3.05659 -1.54313 176 172 156
2.30987 3.05293 -1.5247 145 138 112
2.33837 3.01285 -1.52439 143 136 110
2.48244 3.11665 -1.34939 103 89 58
2.51689 3.08409 -1.32977 146 138 114
2.5506 3.14764 -1.25971 130 121 96
2.65709 3.05381 -0.270765 152 144 119
2.74626 3.106 -0.13198 103 91 56
2.7542 3.09871 -0.117273 143 137 106
2.74391 3.09324 -0.0791413 97 83 49
2.57158 3.07126 0.00539473 147 143 114
2.66434 3.03832 0.0596984 111 101 74
2.67106 3.0359 0.0559347 137 130 100
4.37377 3.77645 0.746636 91 86 55
2.66345 3.03381 0.0748745 175 171 150
4.37865 3.74465 0.718197 75 69 43
4.27048 3.76071 0.985517 107 103 74
2.33787 2.97567 -2.00072 34 30 23
2.55845 3.08231 -1.4226 125 118 91
3.03105 3.14609 -0.293684 139 132 101
2.78386 3.06107 -0.0319757 173 167 139
2.80522 3.04164 -0.0540019 110 101 70
2.81451 3.02753 -0.0741869 120 112 83
4.47045 3.97002 1.16915 134 129 112
2.53134 2.96938 -1.87363 146 139 119
2.52027 2.99035 -1.5833 157 154 138
2.53043 2.96804 -1.58029 158 155 139
2.54102 2.96275 -1.5774 123 119 98
2.55012 2.97566 -1.52392 146 139 113
2.57699 2.93977 -1.5246 147 141 115
2.71168 3.0203 -1.32679 167 161 141
2.69868 2.96228 -1.02141 137 132 105
2.63798 2.97108 -0.922148 139 134 106
2.64365 2.96405 -0.927188 91 81 56
2.68207 2.94319 -0.866746 136 128 97
2.85156 3.01543 -0.717245 173 166 139
2.94466 3.0454 -0.554008 179 174 150
2.97033 3.04883 -0.527109 176 171 150
4.53625 3.56591 0.152528 149 145 121
4.53132 3.53303 0.127542 148 144 116
4.52892 3.53039 0.481893 149 147 125
4.5238 3.52803 0.628813 129 125 98
4.52335 3.51753 0.636388 59 54 28
4.51883 3.52365 0.716934 106 101 70
4.51386 3.51403 0.726709 63 57 36
4.51386 3.51403 0.726709 63 57 36
4.55962 3.45333 0.711873 72 66 40
2.67257 2.85415 0.764581 113 102 74
2.56072 2.92684 -2.00878 88 86 72
2.60503 2.87663 -1.57842 118 113 88
2.76272 2.91837 -1.48639 121 114 92
2.76547 2.91991 -1.40487 111 96 70
2.77149 2.91748 -1.3963 112 96 69
2.77107 2.91717 -1.39578 113 97 70
2.77476 2.91419 -1.40345 159 152 128
3.20448 3.12176 -1.33819 166 161 137
2.94767 2.97479 -0.778741 153 144 108
2.94516 2.97014 -0.770315 115 103 67
2.95797 2.95802 -0.743414 160 153 120
3.04599 2.98486 -0.546499 166 160 134
4.48906 3.36991 0.814214 102 96 71
4.53774 3.31423 0.817718 98 93 65
2.61216 2.85606 -2.00143 17 15 8
2.79073 2.90472 -1.39254 156 149 125
4.5532 3.23615 -0.0815591 99 95 78
4.64475 3.22671 0.742873 110 106 85
2.63873 2.82301 -1.97951 123 117 95
2.67808 2.76913 -2.00853 90 87 72
4.6753 3.17341 -0.211031 80 73 47
4.6613 3.12918 0.812651 77 71 49
4.45449 2.93532 0.841998 110 105 77
4.36457 2.90763 1.10861 139 135 115
4.45479 2.92648 1.30481 163 161 149
2.69857 2.74005 -1.99532 97 90 77
2.71037 2.73375 -1.57735 117 112 92
2.71163 2.72751 -1.58087 151 148 135
4.44712 2.92155 -0.383622 132 130 114
4.44798 2.92234 -0.234877 134 131 113
4.45349 2.92413 0.481357 147 144 129
4.45152 2.93396 0.615298 114 108 82
4.45496 2.92575 0.780711 156 153 138
2.74234 2.67885 -1.87378 142 136 115
4.43423 2.92454 -0.682753 102 100 84
4.62769 2.67929 0.498247 88 79 52
4.51862 2.57238 0.665601 128 121 94
4.51828 2.57296 1.76413 154 148 127
2.62089 2.53565 -2.00765 111 106 94
4.51707 2.57412 0.436999 124 119 93
4.40789 2.59439 -1.43863 58 52 33
3.25063 2.46069 -1.02923 58 52 34
3.44037 2.41725 -2.00375 96 94 81
2.56368 5.39066 -1.0986 97 91 65
2.26678 3.69572 1.76198 86 78 52
2.23092 3.17823 -1.52534 163 156 135
4.71576 3.16131 0.741529 29 28 21
3.0008 5.33753 0.873635 150 146 119
5.47063 7.55896 5.6405 121 115 91
5.47063 7.55896 5.6405 121 115 91
2.07103 3.45304 -1.01223 131 124 94
4.42193 2.83438 -0.625874 99 95 74
2.57627 3.47653 0.455442 157 153 136
2.27695 3.28388 -0.85622 100 94 69
4.39775 2.53821 -0.648376 96 94 75
2.64193 2.53243 -2.00265 121 117 111
2.50448 5.50912 -0.493234 107 102 83
5.25434 6.21519 6.07701 119 111 85
1.80828 3.4805 -0.671187 118 112 87
2.08706 3.5548 -1.473 52 49 37
2.72047 3.3854 0.746665 180 174 153
2.66903 3.23097 -1.08485 142 134 105
2.38286 5.68263 -0.820739 30 27 20
1.67136 4.41662 -2.0122 70 65 51
1.56493 3.9185 -2.00945 68 64 52
12.4613 13.1461 -9.82444 44 39 26
1.79709 3.50381 -0.485179 143 138 112
2.09189 3.49411 -1.44874 122 116 94
1.91783 3.41124 -0.803842 159 153 131
2.55074 3.45044 0.317961 171 165 145
2.16153 3.20494 -0.656723 102 95 68
2.55059 3.22872 0.118318 103 92 60
2.13895 3.14088 -1.30765 156 150 127
2.61196 3.08103 0.0646707 167 161 136
2.5677 3.07098 -1.31045 157 151 126
4.45053 2.89269 -0.41889 135 131 112
2.16732 2.60419 -2.00961 130 124 108
2.44992 5.58254 -1.83388 45 42 33
2.84287 5.66422 1.21141 63 60 48
4.75786 6.86679 2.65143 138 135 114
3.34634 5.16761 1.70286 48 45 31
6.48498 7.34886 4.80292 136 129 107
1.80741 3.97262 -1.55736 143 137 114
2.03776 3.47695 -1.36645 99 92 69
1.98728 3.4461 -0.673774 125 118 92
2.43937 3.47672 0.117216 154 147 119
2.46833 3.46172 0.158834 53 49 35
2.5434 3.51411 0.381669 79 72 47
2.20343 3.34179 -0.239919 167 161 137
2.49517 3.34627 0.178 150 144 117
2.64955 3.40051 0.395061 85 76 51
2.23285 3.28871 -1.01289 71 63 42
2.57155 3.11806 -0.0641437 96 89 68
4.62167 3.17442 -0.0819633 112 109 87
4.61166 3.1723 -0.0840686 112 109 87
4.43552 2.90714 -1.78366 101 99 85
4.43552 2.90714 -1.78366 101 99 85
4.41762 2.8195 -1.27338 56 51 32
2.69048 2.74873 -1.96635 132 126 104
2.75368 2.74391 -1.51362 166 163 146
5.39255 5.95827 6.10618 98 89 62
5.50195 5.81171 6.09342 105 95 65
1.94278 3.45989 -0.440801 147 139 109
2.08707 3.49931 -1.11536 96 89 66
1.96675 3.39028 -0.850424 146 141 119
2.00367 3.4323 -0.39902 146 139 109
2.03772 3.42447 -1.31683 145 138 113
2.12892 3.25944 -1.42063 133 127 105
2.1401 3.29196 -1.30798 150 144 124
2.79598 3.36334 0.855531 111 101 70
2.18834 3.22098 -1.47583 129 124 103
2.11705 3.18384 -1.35839 134 127 101
2.28173 3.19385 -1.50525 161 158 142
2.36183 3.14737 -1.5184 162 158 141
2.53492 3.06765 -1.35176 108 97 68
4.44048 2.74255 -0.722884 49 46 32
4.48896 2.85087 -0.480978 99 94 71
2.74196 2.70165 -1.54969 173 168 152
2.37234 5.72658 -0.53677 59 54 39
2.37234 5.72658 -0.53677 59 54 39
2.32988 5.52382 -2.01306 30 29 25
2.41864 5.69173 -0.855469 81 77 58
2.38768 5.70158 -0.562078 113 107 86
2.39062 5.7031 -0.505526 116 110 89
2.45011 5.6425 -1.77743 87 83 64
2.4629 5.48284 -0.690212 109 104 83
2.88485 5.63846 -0.098155 144 139 111
2.89026 5.64304 0.496732 147 142 113
3.14889 5.42363 1.56768 109 103 74
1.78695 3.7674 -0.692976 50 48 35
1.82017 3.49494 -0.455442 122 117 93
2.48517 3.70047 1.51046 119 110 80
2.1062 3.54349 -1.16498 68 61 43
1.79435 3.43888 -0.794949 119 113 88
2.13667 3.50652 0.0131315 167 161 139
2.49826 3.65848 1.46337 101 93 65
2.14951 3.49068 -0.0359641 140 131 100
2.61161 3.61151 1.18571 124 117 90
2.15433 3.24242 -0.652827 70 66 48
2.4688 3.27649 -0.00510122 85 78 55
2.48748 3.19442 -0.0130477 179 173 152
2.34245 3.12 -1.39575 168 160 136
2.51457 3.1209 -1.31686 106 98 71
2.51457 3.1209 -1.31686 106 98 71
2.80225 3.04565 -0.0564867 121 113 82
4.50056 2.8681 -1.25863 82 77 55
4.48489 2.72225 -1.8737 47 44 32
2.1943 5.48523 -2.00474 54 50 39
2.40689 5.57148 -0.695263 103 100 84
2.84793 5.65177 -0.375953 109 102 70
4.09426 3.97864 -0.16251 146 142 116
5.32543 6.32351 6.06484 122 115 90
2.86124 4.00174 0.919057 127 119 90
2.10892 3.58928 -1.14225 83 75 52
2.10584 3.54514 -0.0883164 99 89 61
2.47329 3.65107 1.56486 139 132 103
2.56786 3.51181 1.59506 174 165 147
2.06372 3.40519 -1.21447 68 60 41
1.96609 3.32537 -0.882285 125 118 93
2.19504 3.34347 -1.1296 104 97 71
2.11955 3.30368 -1.37241 52 46 34
2.11226 3.28159 -1.35086 139 133 111
2.19214 3.26683 -1.05926 120 113 85
2.30487 3.26203 -0.849041 75 71 56
2.21891 3.19579 -1.51924 173 166 147
2.25076 3.24951 -1.1773 71 64 44
2.37596 3.21512 -0.89739 92 86 64
2.39035 3.21051 -0.885982 51 47 35
2.33278 3.20279 -0.15753 166 162 141
2.44476 3.19443 -0.0678359 180 176 155
2.3355 3.13513 -1.37198 150 144 123
2.58374 3.226 -1.15841 138 131 103
2.56721 3.13773 -0.0508044 112 105 74
2.72599 3.06862 -0.818886 129 123 96
3.31466 3.15453 0.76052 135 129 106
2.74873 2.90753 -0.969973 160 154 133
4.66423 3.08344 -0.432231 89 82 54
4.4339 2.94205 -0.575761 75 69 46
4.44717 2.945 -0.466332 73 68 45
4.4655 2.77584 -0.763765 71 68 50
2.74032 2.68396 -1.86752 135 130 107
4.33086 2.61368 -1.86282 59 55 39
3.25579 2.43887 -2.00637 115 111 94
3.25579 2.43887 -2.00637 115 111 94
1.72688 4.8565 -2.0127 74 71 58
1.72293 4.84275 -2.01208 73 69 56
2.39511 5.62128 -1.83064 46 45 37
2.41249 5.6156 -1.8475 64 60 48
1.70588 4.56845 -2.01177 75 70 54
2.85227 5.6507 0.524131 126 120 84
3.16049 5.89145 3.48249 123 115 87
2.15321 4.59221 -2.01538 36 33 25
1.32452 3.24046 -0.582498 101 97 75
3.08375 5.38071 0.486489 143 140 109
3.25552 5.27611 1.6935 78 72 46
1.58192 3.84428 -2.012 101 96 83
1.79704 3.97389 -1.92409 122 116 99
3.43826 4.98625 1.59103 134 128 102
6.53528 7.20663 5.31146 123 117 87
1.9755 3.96424 -1.50538 128 123 98
2.06756 3.74086 -1.24306 70 63 46
1.44659 3.10157 -1.48931 84 78 59
3.54917 4.44505 -2.42007 159 155 139
1.79694 3.50657 -0.419345 133 127 96
2.50003 3.72079 0.640334 135 129 106
2.58543 3.84125 0.945582 146 141 120
2.1048 3.59463 -1.1551 93 85 64
2.55429 3.68292 0.832918 128 121 94
2.11042 3.47844 -1.13207 42 37 27
2.11042 3.47844 -1.13207 42 37 27
2.04023 3.43706 -0.714215 129 123 97
2.03687 3.43468 -0.714957 135 130 103
2.04659 3.43593 -0.584775 119 109 81
2.04975 3.38806 -0.255031 180 173 150
2.40652 3.53129 0.152887 142 135 107
2.51438 3.55581 0.361715 80 72 51
7.25873 6.27381 3.3506 138 130 91
2.55243 3.61111 0.741275 152 147 124
2.56946 3.62213 0.849021 158 152 131
2.05658 3.37059 -0.908216 150 144 120
2.14926 3.39288 -1.50215 61 57 46
2.09427 3.33078 -0.548598 76 71 52
2.27528 3.2887 -0.811351 56 54 42
2.49159 3.37077 -0.811098 78 72 54
2.27067 3.28345 -0.797035 71 66 49
2.25326 3.2285 -0.231195 128 123 102
2.83722 3.36457 0.378174 126 118 82
2.82041 3.32302 0.893806 140 134 111
2.12889 3.26639 -1.99498 106 99 86
2.30401 3.20567 -1.24688 119 113 88
2.35568 3.22972 -0.865788 67 62 47
2.89307 3.29288 0.653007 134 127 98
2.35341 3.12515 -1.37133 96 89 69
2.56248 3.12483 -0.0958685 127 119 88
2.258 3.09128 -1.72998 156 153 140
2.6501 3.06006 -0.715359 147 138 111
2.73416 3.09568 -0.0938392 172 163 131
2.42854 3.03718 -1.491 183 180 167
2.52879 3.02079 -1.51914 182 179 167
2.58738 3.05688 -1.31978 165 157 132
2.80037 3.02022 -1.30179 152 146 125
2.68053 2.98626 -1.01583 128 123 95
2.61401 3.0163 -0.926853 134 128 99
2.8655 3.04198 -0.631784 138 132 104
2.7113 2.94877 -1.48195 155 148 128
4.41834 2.94511 -0.669318 65 61 42
4.46336 2.93964 -0.120256 96 90 59
4.4557 2.91659 0.266945 146 142 124
4.43779 2.91315 0.298498 146 141 124
2.74267 2.68265 -1.8431 136 130 105
4.34213 2.61309 -1.81053 35 32 21
4.39907 2.58139 -0.632469 99 95 75
2.16211 2.61282 -2.0093 137 133 124
2.5078 2.56892 -2.00849 107 102 91
2.70564 2.6019 -2.00534 97 94 82
1.88929 2.51156 -1.21791 107 102 86
2.40347 5.69516 -1.76371 98 92 72
2.40347 5.69516 -1.76371 98 92 72
2.20125 5.45579 -0.723523 57 52 36
1.72857 4.74908 -2.02661 71 67 55
1.714 4.78301 -2.01231 73 70 55
1.69734 4.65574 -2.01139 71 68 55
2.40623 5.60961 -1.99572 47 45 38
2.41244 5.60449 -1.82287 50 46 36
2.4494 5.54265 -1.81971 42 39 31
2.51742 5.45807 -1.82032 40 39 30
2.51623 5.55639 -1.28709 86 81 62
1.65332 3.83968 -0.664076 112 108 85
1.52195 3.98016 -2.00912 94 88 72
2.02462 4.51156 -2.01015 66 63 50
3.06662 5.36984 -0.11529 123 120 93
4.52173 3.2577 -0.100446 127 124 104
3.1237 5.32032 0.441572 146 142 113
1.53967 3.97636 -2.00827 92 87 73
1.56904 3.97479 -2.00941 89 85 71
5.87366 7.22921 5.67839 127 121 96
5.43862 5.93722 6.09169 74 66 43
2.51886 4.0288 0.903557 141 138 117
2.13821 3.80161 -1.14958 89 82 63
1.79076 3.55285 -0.780643 104 100 78
2.12722 3.7586 -0.0368934 83 76 52
2.48775 3.77075 0.347052 145 139 110
2.53426 3.78147 0.5146 95 89 65
2.52907 3.77795 0.805414 155 149 129
2.48242 3.7532 1.48642 89 78 50
2.48932 3.74231 1.47836 100 92 65
2.49837 3.69993 1.46307 76 69 47
1.94786 3.47052 -0.507272 136 127 96
2.40271 3.60883 0.210924 119 113 90
2.451 3.64667 0.278218 125 119 94
2.48654 3.63501 0.338112 133 124 91
2.5064 3.63584 -1.53429 100 93 68
2.01753 3.45336 -0.648843 149 144 120
2.01753 3.45336 -0.648843 149 144 120
2.08538 3.43834 -0.190358 149 143 119
2.55234 3.57339 0.513084 115 108 82
2.54879 3.55388 0.498805 148 142 116
2.54171 3.62459 0.550114 130 126 102
2.54717 3.6138 0.565336 138 133 111
2.60602 3.57903 0.880111 167 161 141
2.61523 3.56023 0.900936 130 124 97
2.53678 3.5248 1.29467 137 129 100
2.15354 3.41882 -1.06023 67 61 45
2.10073 3.41659 -0.754548 135 124 93
2.40011 3.4123 -0.0467794 172 166 146
2.45316 3.44716 0.212978 146 140 114
2.54277 3.53168 0.356491 149 142 112
2.64745 3.4588 0.499351 146 140 120
2.08075 3.3594 -1.33224 119 113 90
2.25968 3.36728 -1.01626 87 78 54
6.59371 4.35 5.79083 100 90 59
2.12733 3.28993 -1.31921 143 137 115
2.36172 3.25593 -0.108554 163 158 136
2.09938 3.11443 -0.527172 126 122 99
2.58582 3.18251 0.013185 177 172 151
2.57439 3.22959 0.123192 85 74 48
2.59413 3.19718 0.136037 118 112 88
2.23873 3.02377 0.610979 123 116 95
2.33229 3.04939 -1.50594 150 143 117
1.7145 2.90313 -0.489789 173 169 149
2.67425 3.09454 -0.183025 131 119 84
2.63385 2.96568 -0.738974 166 160 133
2.84912 3.02107 -0.694221 174 168 142
2.8809 3.01078 -0.642237 143 137 111
2.95033 3.04634 -0.534337 142 135 106
2.95169 3.04871 -0.203743 94 83 55
4.572 3.2062 -0.079349 117 114 96
2.96653 2.93027 -0.696381 178 169 138
4.45466 2.92065 1.03331 160 156 142
4.4558 2.92122 1.26062 169 163 148
4.45295 2.92009 -0.053096 139 136 116
3.77968 2.81477 -1.62403 103 100 83
4.51252 2.83707 -0.450252 127 124 106
4.2866 2.59545 -0.694659 96 92 70
4.40505 2.66973 -1.97067 27 25 20
2.56202 2.57552 -2.00817 124 122 114
2.18992 5.53044 -1.79031 68 66 52
2.33805 5.72134 -0.442743 110 107 91
2.39418 5.62277 -1.85026 36 34 26
2.28632 5.35799 -2.01429 49 46 37
2.40313 5.59212 -2.01816 38 38 32
2.82771 5.66118 1.07893 84 79 52
2.83878 5.65682 1.66362 87 81 61
3.13946 5.90888 3.45223 70 61 36
2.87306 5.62372 3.58434 101 94 70
1.5141 3.97096 -2.00858 77 71 58
3.13125 5.41742 1.4768 126 121 96
6.55951 7.22846 4.24126 129 123 98
1.78144 3.70281 -0.674428 96 89 63
2.01401 3.82512 -1.49431 29 28 18
2.51567 3.99243 0.66829 113 106 76
2.07929 3.73434 -1.40841 95 88 68
2.63111 4.08859 -1.25662 98 94 69
2.08736 3.72142 -1.45662 80 73 56
1.80817 3.49859 -0.439517 146 139 111
1.81213 3.49773 -0.410456 84 78 56
1.8105 3.49798 -0.386107 44 41 28
1.9452 3.52028 -1.9021 128 123 105
1.85308 3.42195 -0.802066 130 124 98
1.85932 3.40456 -0.806933 105 100 76
2.11598 3.53854 -0.0555032 94 84 59
2.11094 3.53572 -0.0460345 135 129 99
2.4021 3.61738 0.224904 156 152 132
2.53376 3.6699 0.682077 129 119 92
2.00348 3.47513 -1.52469 137 130 105
2.09087 3.42852 -0.706373 157 151 127
2.07477 3.43662 -0.688168 155 149 126
5.21158 4.61936 0.220633 160 154 126
2.16928 3.44418 -0.186649 177 172 150
2.09544 3.45941 -0.167224 148 141 115
2.1905 3.44457 -0.169887 176 170 148
2.38691 3.55578 0.150612 137 132 106
2.38691 3.55578 0.150612 137 132 106
2.41641 3.51702 0.154416 133 128 100
2.51259 3.5408 0.372145 125 119 92
2.59518 3.59292 0.856663 153 147 122
2.59603 3.57649 0.904892 153 149 129
2.60912 3.56053 0.908956 162 157 138
2.15424 3.44171 -1.45038 71 67 53
1.97123 3.28465 -1.07525 91 84 63
2.17826 3.36366 -0.251421 129 125 106
2.53347 3.50772 0.435939 131 121 93
2.54099 3.49995 0.442136 171 164 145
2.54295 3.47271 0.402886 129 119 92
2.60936 3.46682 0.438327 185 181 161
2.07171 3.34387 -2.0094 90 87 75
2.23323 3.30981 -1.35971 143 137 115
2.16481 3.35449 -0.96249 166 161 136
2.23276 3.32335 -0.781614 72 66 49
2.23276 3.32335 -0.781614 72 66 49
2.15117 3.31238 -0.648691 72 65 46
2.12822 3.30505 -0.609216 65 62 43
2.49858 3.35832 0.213264 162 155 129
2.63883 3.36457 0.31397 134 127 102
2.62896 3.45094 0.455186 185 180 157
2.79728 3.4018 0.978051 173 168 149
2.13765 3.27177 -1.338 136 130 110
2.2135 3.2503 -1.19563 121 115 91
2.19455 3.2467 -1.08142 97 91 68
2.19455 3.2467 -1.08142 97 91 68
2.45907 3.23772 -0.0350492 160 157 139
1.47474 2.98903 -0.202729 156 150 125
2.81805 3.31285 0.867962 172 169 152
2.14387 3.16736 -1.40443 79 72 52
2.57025 3.25057 -1.17138 116 108 80
2.32717 3.24603 -0.865923 71 68 52
2.15195 3.10972 -0.401166 150 144 124
2.47776 3.18078 -0.0498302 184 180 160
2.62952 3.17571 0.152245 181 175 154
2.94823 3.20607 0.861643 98 88 60
2.38582 3.13677 -1.30614 159 154 137
2.58337 3.23335 -1.14731 87 79 59
2.58208 3.21577 -1.16848 116 107 80
2.58189 3.21574 -1.16837 118 110 82
2.43133 3.1888 -0.925103 90 85 63
2.64094 3.10923 -0.126109 178 168 134
4.46257 3.41019 0.789352 123 119 93
2.55861 3.14935 -1.26096 129 122 97
2.80355 3.07155 -0.692165 143 136 108
1.96082 2.91183 0.273899 101 96 73
2.31096 3.01744 -1.9611 116 109 89
2.56384 3.07509 -1.42789 143 136 111
2.87069 3.01863 -0.648201 178 172 146
4.68263 3.16602 -0.14859 47 44 27
4.67502 3.20133 0.724224 92 85 59
2.53826 2.95633 -2.00167 29 28 21
2.64996 2.95312 -0.923247 97 86 58
2.64794 2.96507 -0.878137 158 152 128
2.98072 2.95417 -0.74714 160 151 116
4.64373 3.1234 -0.111067 82 76 49
4.45447 2.92351 1.09216 161 158 145
2.63202 2.86618 -1.52509 147 142 119
4.44841 2.92256 0.388543 143 141 123
4.52011 2.57056 1.1405 139 134 109
4.52082 2.57246 1.20288 138 133 109
2.68329 2.75899 -1.99292 96 90 74
4.5679 2.73002 -0.674907 47 44 29
4.52188 2.57356 -0.0510956 117 112 83
4.40097 2.5856 -0.623532 103 99 79
2.23315 5.5808 -0.851571 53 49 35
2.227 5.49514 -1.99789 50 46 38
2.25486 5.51839 -1.98752 28 27 22
2.38953 5.61849 -1.91517 60 56 46
2.38733 5.6996 -0.664023 118 113 91
2.42653 5.59453 -1.80474 78 73 60
1.66435 4.40564 -2.01168 84 78 61
3.33617 5.88349 4.06537 117 110 82
2.5902 3.45921 0.37995 97 89 63
1.88801 3.85443 -1.99636 95 87 69
3.16236 3.25 -0.240377 116 109 77
2.49724 3.69881 1.4632 78 72 50
2.82025 3.34452 0.391416 178 172 149
2.53658 3.62916 0.496748 151 145 114
2.64052 3.00497 -0.37399 161 155 129
2.57632 3.67863 0.904311 117 110 82
2.75155 3.48982 1.4551 123 112 85
2.57684 3.65333 0.898695 111 103 74
2.58268 3.51257 1.59522 175 168 153
2.10548 3.61801 -1.50775 96 88 64
2.59899 3.52183 1.43682 125 114 83
1.77818 3.52321 -0.459979 106 101 76
1.79699 3.50819 -0.407594 83 78 57
2.30817 3.28289 -1.03297 142 136 108
2.127 3.52178 -0.0172302 105 98 73
2.73516 3.10901 -0.133488 150 142 105
2.4938 3.61598 0.33512 132 126 101
2.21966 3.32342 -0.985414 164 159 135
2.60478 3.57538 0.897444 124 115 85
2.94139 2.93224 -0.657437 173 167 140
2.46039 3.29041 -0.0165898 152 147 124
1.91855 3.41313 -0.801031 153 146 125
2.12065 3.29729 -1.31944 79 72 49
3.29019 3.32395 -1.10229 121 115 87
2.20919 3.26034 -1.21526 130 125 103
2.92241 3.30021 0.11071 146 135 110
2.16555 3.04714 -0.440054 158 153 132
2.65668 3.13689 -0.466431 98 86 52
4.57429 2.71246 -0.496862 70 64 43
2.97034 3.19357 -1.25843 104 95 66
2.74199 2.68333 -1.76063 136 130 110
2.74325 2.68304 -1.70222 143 137 116
3.01397 2.97193 -0.612522 159 148 120
1.82299 3.94148 -1.99821 97 90 73
1.52626 5.33874 3.41725 113 107 80
2.51921 4.02797 0.67097 74 68 44
3.43295 5.01021 1.56318 150 145 124
1.90725 3.81874 -2.00837 57 55 44
3.25805 3.29813 -1.29561 155 150 128
2.55668 3.74684 1.32154 67 60 41
3.08428 3.0297 -1.43605 140 133 108
1.97897 3.72967 -1.99648 86 80 64
2.84798 2.79655 -1.51359 147 141 117
2.03652 3.61669 -0.0914333 127 121 96
2.62494 3.0572 0.0111596 113 105 77
2.61588 3.62585 1.16465 96 85 62
3.18303 3.09682 -1.34286 160 152 130
2.07962 3.5799 -1.211 117 110 85
2.85568 2.78592 -1.53049 123 116 90
2.77033 3.55707 -0.00573443 134 126 95
3.05376 2.98558 -0.605695 156 150 123
2.67202 3.39377 0.367707 103 94 67
2.79858 3.26278 0.179409 145 134 102
2.60628 3.36081 0.269656 132 126 102
-0.0885068 4.20963 3.33518 167 160 141
2.12166 3.34201 -1.28331 142 135 115
2.14842 3.26265 -1.46298 97 90 69
2.96564 2.83607 -1.99312 83 80 67
2.21979 3.17777 -0.728726 102 96 68
3.10075 3.05859 -1.49155 105 94 62
2.10085 3.10157 -0.487795 137 132 109
4.07588 4.12426 0.378286 151 146 125
2.02435 3.4134 -0.392348 99 93 71
2.99534 2.93004 -0.703768 106 97 65
2.03036 3.4421 -2.02568 78 75 63
2.08523 3.47243 -1.42052 96 91 73
2.12398 3.42955 -1.09268 86 79 59
3.05505 3.01903 -1.49442 43 42 31
2.09105 3.44164 -1.07794 72 64 45
2.73036 3.47729 -0.860041 113 103 78
3.19474 3.10321 -1.35778 117 109 82
2.1353 3.39695 -0.718558 141 134 105
3.31449 3.08882 -1.98445 88 80 64
2.47152 3.33661 0.0101868 153 148 122
2.21978 3.31994 -1.20589 116 111 90
2.6553 3.20871 -1.1447 143 135 105
2.26428 3.35379 -1.05041 127 122 100
2.75333 3.24313 0.110789 151 145 123
2.27562 3.3453 -1.04199 90 83 63
2.28212 3.33779 -1.03927 92 85 65
2.82308 5.6292 1.95978 138 133 113
2.44975 3.27165 -0.0286249 153 149 129
3.18263 3.54247 -0.374185 92 85 59
2.50455 3.33304 0.0803796 151 147 126
2.87213 5.64087 0.763699 122 117 84
2.53315 3.32032 0.161613 142 134 111
3.11487 3.04754 -1.38521 142 135 113
2.8344 3.00017 -0.931933 96 89 68
3.2408 3.2332 -1.4993 110 104 85
2.3196 3.00925 -1.57649 126 120 99
3.24609 3.17303 -1.34117 98 89 61
2.32443 2.99442 -1.57519 121 115 92
3.04245 5.42472 1.03745 127 122 91
2.6827 2.95926 -1.50029 165 159 136
3.26721 3.0552 -1.99252 77 74 61
2.58541 3.04407 -1.37446 128 121 99
3.32978 3.14663 -1.50484 131 122 90
2.61675 3.00545 -0.917578 126 119 90
3.25161 3.28092 -1.4806 112 103 76
2.64811 2.96518 -0.878065 158 153 129
3.27437 3.34303 -1.35585 119 111 90
4.5134 2.57322 1.875 158 153 129
2.35593 2.95937 -2.00868 113 109 98
1.40996 3.0391 -1.05931 115 107 83
3.07697 5.34573 -0.401303 118 115 93
4.35316 2.63209 -0.768584 69 64 42
3.24459 5.13521 0.173048 124 122 100
4.40262 2.59918 -0.610168 67 63 41
0.23212 4.28267 -0.657973 134 130 111
4.64381 2.40383 -0.402616 141 138 119
0.521067 4.58922 2.22275 167 160 133
4.63748 2.39035 -0.415655 113 109 84
2.61307 2.38288 -0.447668 113 111 95
4.87398 2.09766 3.49603 88 84 67
2.69006 2.74686 -2.00874 110 107 94
2.42749 3.11043 -1.35347 174 166 144
3.56173 2.32582 -0.673905 113 109 90
2.57031 3.06437 -0.580502 166 158 130
2.635 2.53907 -2.0086 142 138 127
0.135221 4.32302 0.101638 45 45 42
4.64381 2.40383 -0.402616 141 138 119
-0.124056 3.83956 -0.807264 92 85 58
2.65956 2.8021 -1.57758 121 116 94
4.52347 2.58511 -0.0779592 81 74 45
3.86637 3.62048 -1.81302 66 62 51
4.50938 2.58447 -0.10916 84 76 47
3.65537 3.88556 -2.00433 63 60 49
3.40864 2.72725 -0.371773 89 84 53
4.52159 2.57403 -0.31527 118 113 85
3.55187 3.26653 -1.6755 132 127 106
4.52679 2.57255 -0.33769 121 115 85
3.45986 3.20029 -1.61488 135 130 111
4.52182 2.58534 -0.395647 63 56 36
3.41398 3.16088 -1.99129 86 82 69
4.49775 2.58916 -0.41927 78 72 48
3.27401 9.8161 6.21745 189 188 188
4.50264 2.6124 -0.431613 110 105 85
3.24367 5.13904 0.175206 126 124 100
4.50264 2.6124 -0.431613 110 105 85
3.03453 3.18205 -0.0865953 181 174 151
4.45415 2.92214 0.714066 153 150 135
3.07209 3.00912 -0.633821 95 85 54
2.63767 3.10041 0.0945726 172 166 139
2.3642 5.19324 2.95123 155 149 134
2.24363 3.14712 -0.274049 147 144 126
2.92361 2.91023 -1.44927 106 95 64
2.31362 3.2113 -1.20074 165 160 141
2.30239 3.17306 -1.23426 114 106 79
0.133054 4.28333 0.443784 179 175 152
2.33173 3.23919 -0.140485 155 152 132
2.19279 3.20621 -0.700945 99 93 66
3.40369 4.87571 -0.119324 116 112 89
2.31663 3.25298 -0.861091 100 94 68
3.29975 3.76264 0.0364916 115 111 81
2.15169 3.2449 -1.3752 78 73 56
3.13766 4.57276 -0.758926 81 79 60
2.00252 3.45323 -1.0188 116 107 78
2.04063 3.50426 -1.30985 97 90 70
2.97182 2.94146 -1.47783 142 134 110
2.10799 3.54647 -1.46752 12 13 9
2.67214 3.09764 -0.143332 128 117 80
2.59561 3.60503 0.897148 120 111 80
2.52868 3.53435 0.361811 96 85 58
3.10544 3.19803 -0.490434 156 149 120
2.52239 3.57825 0.432303 133 126 100
2.15097 3.13319 -1.31311 164 157 134
1.76518 3.58802 -0.421485 71 66 49
2.2441 3.21986 -1.05493 153 146 118
2.56576 3.79608 1.37445 93 84 55
-0.0123976 4.13954 -2.00376 68 63 48
2.50424 3.74675 0.766099 160 153 128
2.37102 2.99794 -0.498902 133 127 102
2.33514 3.8825 -1.08437 53 49 37
2.86778 3.42237 0.519354 179 173 154
2.54969 3.94628 0.746354 83 75 52
3.77005 3.83983 -1.74493 82 78 67
2.42449 4.00243 -1.00995 31 28 20
2.05193 5.72842 1.38272 124 119 91
2.29068 4.26692 -0.337062 107 101 78
3.24506 3.04185 -1.75449 109 102 75
5.4922 5.82203 6.03182 104 96 66
3.05658 3.56201 0.635074 96 89 63
7.12313 6.4259 4.30881 130 124 89
3.12646 2.98258 -1.52223 134 126 95
1.63402 4.16517 -2.00963 62 59 49
2.80189 2.71447 -1.99436 97 93 81
4.57333 2.72723 -0.627601 66 59 40
2.52686 3.20967 0.0100767 180 174 151
1.85548 3.89445 -2.01388 63 59 48
2.3852 3.11313 -1.35299 182 176 156
1.79707 3.9765 -1.60445 133 127 108
2.81794 3.10937 -0.613785 129 118 88
3.30896 4.98099 0.847711 39 36 21
2.83599 3.35906 0.362886 187 180 157
1.64429 4.26927 -2.01211 78 73 60
2.90857 3.30514 0.717145 112 100 66
6.48846 7.31519 4.8547 133 125 98
2.31985 3.04567 -0.70448 104 99 76
2.5416 5.51225 -1.76147 64 60 48
2.24316 3.19152 -0.759731 102 96 69
2.66364 3.03845 0.0636067 120 113 84
2.29207 3.2306 -1.22133 91 82 55
2.51152 2.98724 -2.01002 95 91 76
2.3003 3.21668 -1.22752 99 91 63
2.18388 3.05053 -0.425105 136 132 112
2.79518 3.34761 0.873882 169 162 143
4.51238 3.40284 0.739974 127 123 101
2.16635 3.38325 -0.803829 130 119 87
2.69727 2.90625 -0.945847 128 120 93
2.58291 3.49293 0.463305 182 176 157
2.78354 2.90712 -1.47305 106 101 83
2.07005 3.48333 -1.24235 148 141 116
1.81914 3.4952 -0.423216 141 135 105
2.0965 3.54804 -0.061224 169 162 139
4.45807 2.91786 0.788672 148 145 127
2.15563 3.6204 -1.49708 17 17 13
2.70117 2.7427 -2.00466 33 32 24
2.44265 3.61837 0.255375 94 88 66
2.18612 3.19848 -0.69208 65 58 40
5.67784 5.84616 6.10032 121 114 85
2.79584 3.37549 0.958766 164 159 140
6.22658 7.18291 5.73424 125 119 91
1.56863 3.76894 -2.00948 103 97 83
3.01782 5.4212 -0.135139 92 88 62
2.18965 3.07676 -0.384507 128 124 105
2.90628 5.5691 -0.676726 109 104 84
1.89765 3.83343 -2.01041 64 61 49
2.50138 5.40479 -0.698926 97 91 71
3.18606 5.40222 1.28212 149 145 122
3.01203 5.40435 1.93319 94 87 57
3.09676 5.38076 1.92732 86 80 54
3.18272 5.42489 1.53153 155 150 128
3.07348 5.38303 0.461228 100 94 64
2.99014 5.47998 -0.444321 116 113 87
2.86227 5.63572 1.91058 128 122 102
2.876 5.64009 0.78982 148 143 116
2.86722 5.64852 0.761493 117 111 79
2.86464 5.64759 0.459662 109 103 71
2.85542 5.65222 0.40569 120 113 77
2.85542 5.65222 0.40569 120 113 77
2.86651 5.65093 0.165431 108 102 71
2.85383 5.65132 0.112153 114 106 71
2.87386 5.64397 -0.442375 132 127 100
2.8699 5.65977 -0.417008 103 99 73
2.76773 2.69714 -1.56026 170 166 149
4.51021 2.5643 -0.412879 119 115 94
4.40914 2.57074 -0.484808 119 114 94
4.41238 2.56533 -0.67894 102 99 82
2.30739 3.01872 -1.56917 134 131 110
2.68851 3.02694 -0.843019 119 111 86
1.85819 3.17955 -0.903574 93 86 63
2.1418 3.24368 -1.56935 131 127 108
2.8847 3.21898 0.851998 94 84 55
2.82583 3.2576 0.825904 123 116 87
2.23605 3.31709 -0.766664 91 83 59
2.1779 3.34974 -1.49803 37 36 29
2.07945 3.4289 -1.2345 102 93 67
2.09611 3.45409 -1.41461 84 78 60
2.13415 3.41285 -1.50598 121 118 99
2.14974 3.48672 0.01644 124 116 84
2.00344 3.43219 -0.398529 149 142 111
1.8146 3.45826 -0.795402 121 116 89
2.04233 3.49763 -1.3008 104 98 76
2.48945 3.59083 0.381928 82 75 52
2.43564 3.58272 0.25953 104 99 76
2.08107 3.5869 -1.21415 101 94 70
2.07452 3.59404 -1.24855 59 53 35
1.95187 3.59015 -2.00801 76 71 57
2.50902 3.57227 1.34747 146 140 115
2.55947 3.60855 0.720452 93 83 56
2.54627 3.61418 0.620123 87 79 57
2.52572 3.66575 0.577316 126 121 92
2.43561 3.6346 0.340821 64 57 39
2.44738 3.66036 0.298417 83 73 50
1.78171 3.56557 -0.689522 95 89 69
1.78824 3.58233 -0.721192 88 83 64
1.79338 3.58291 -0.75354 91 86 66
2.05865 3.69208 -1.22611 72 64 45
2.48521 3.70055 1.511 119 111 81
2.63088 3.79214 1.31355 104 94 62
2.56406 3.71268 0.866391 153 145 119
2.53438 3.76542 0.564403 121 116 88
2.49373 3.74148 0.363434 53 47 32
2.5254 3.79431 0.466895 109 103 75
2.06066 3.71552 -1.22799 140 134 113
7.02456 4.88869 5.68954 158 152 120
7.02456 4.88869 5.68954 158 152 120
3.12167 4.00339 1.89211 138 127 91
6.96901 5.23575 5.7136 148 142 111
1.80792 3.93432 -2.01231 82 76 61
5.4792 5.47892 6.02345 106 96 67
1.58281 3.99194 -2.01119 69 63 52
7.14924 6.5008 4.25482 148 139 107
3.26652 5.09885 0.164357 71 68 44
3.26818 5.10161 -0.416401 60 56 39
3.26818 5.10161 -0.416401 60 56 39
1.95705 4.46416 -2.01236 62 58 47
3.31366 5.24261 1.23714 153 148 123
5.86089 7.04109 5.7745 131 124 98
5.86089 7.04109 5.7745 131 124 98
3.0761 5.3384 1.98038 77 71 48
5.90175 7.24586 5.67554 125 118 91
6.37413 7.49699 5.1874 122 112 82
3.04372 5.37912 1.94549 127 120 91
2.76181 5.23317 -1.7424 51 48 36
5.51758 7.39604 5.6484 122 115 92
2.87713 5.56678 1.96608 133 126 101
2.87713 5.56678 1.96608 133 126 101
2.87121 5.60221 1.93855 92 86 63
3.15399 2.4552 -2.00834 122 117 99
2.71325 2.55513 -2.00184 100 97 83
2.32562 2.99366 -1.97333 128 120 98
2.32348 2.99516 -1.54497 173 168 149
2.19546 3.17816 -1.9755 133 126 104
2.13473 3.22304 -1.2692 86 78 56
2.19887 3.18815 -1.54888 171 165 146
2.083 3.19427 -0.522786 85 80 58
2.13284 3.20853 -0.614381 76 70 53
2.2867 3.27753 -0.867881 99 94 74
2.48695 3.31836 0.0588403 92 84 57
2.27583 3.31533 -1.02092 63 58 39
2.10175 3.38804 -1.305 31 28 22
2.10175 3.38804 -1.305 31 28 22
2.29759 3.32205 0.901458 147 142 127
2.53849 3.33389 0.146632 73 65 45
2.46215 3.40327 0.175306 148 142 117
2.41674 3.41799 0.0168845 169 163 140
2.11744 3.40043 -0.669766 92 85 62
2.04161 3.43758 -1.35045 82 75 53
2.03622 3.4035 -1.55446 159 154 134
2.0192 3.54349 -1.31676 74 68 50
2.03386 3.53961 -1.35219 130 122 99
2.07143 3.54872 -1.50611 133 129 109
2.51334 3.53565 0.327375 162 156 133
1.7964 3.48965 -0.691992 105 99 76
2.48012 3.62342 1.54301 151 141 115
2.49375 3.65552 1.46535 100 93 64
2.49106 3.67747 0.405717 142 137 117
2.25712 3.67031 0.173348 164 158 135
2.09368 3.70075 -1.39264 76 69 49
2.00659 3.68465 -2.00367 22 22 18
2.50739 3.7153 0.654057 131 125 103
2.56627 3.98637 0.906155 88 79 53
2.54193 3.98474 0.833815 129 123 94
1.50824 3.74869 -0.517483 53 50 38
2.44553 3.98085 -0.965559 76 69 50
1.97912 3.93501 -1.47301 133 125 97
7.4397 6.13212 4.86371 145 136 103
2.28679 4.22911 -1.33205 91 85 61
6.12477 5.82254 6.10878 125 117 87
6.12477 5.82254 6.10878 125 117 87
3.24391 5.13745 0.417211 137 132 108
3.23439 5.13528 -0.176958 119 116 91
5.38786 6.65118 6.03588 118 111 89
3.17293 5.31754 -0.685054 89 86 69
2.78411 5.05902 -0.71979 49 46 35
3.14985 5.42444 1.56953 108 102 74
3.03462 5.41106 0.711419 159 156 131
3.03145 5.41118 0.124346 148 144 119
2.81175 5.67628 1.07552 43 40 27
2.53279 5.40505 -0.720805 58 54 44
2.51295 5.41509 -0.757198 94 89 71
4.39802 2.56551 -0.861084 80 74 48
2.11868 3.11918 -0.568629 131 125 96
2.10128 3.24202 -0.556378 74 70 52
2.19402 3.29153 -1.13487 122 115 89
2.14327 3.25911 -1.31114 59 54 38
2.13679 3.31151 -1.51187 154 149 129
2.06304 3.36968 -1.54981 161 155 132
2.47698 3.42087 0.114473 157 149 117
2.18495 3.33289 -0.241665 172 165 142
2.11244 3.44515 -1.4426 124 117 95
2.53776 3.51066 0.379737 81 73 48
2.44889 3.45295 0.239059 100 94 69
2.42466 3.48524 0.194434 169 164 138
1.81706 3.4447 -0.367311 171 166 142
2.06681 3.51453 -1.26619 67 60 44
1.95264 3.50925 -1.54886 153 146 127
2.58061 3.53616 0.663322 109 100 71
2.58251 3.53747 0.664179 108 99 70
2.49822 3.587 0.361725 101 95 70
2.52541 3.56386 1.47415 95 84 54
2.66648 3.62473 1.05242 126 120 96
2.53095 3.71288 0.571058 122 116 88
1.8339 3.56964 -0.837553 108 100 74
2.05982 3.65865 -1.21018 134 127 107
2.47511 3.65751 1.53075 105 94 64
7.0239 4.91248 5.725 158 153 120
1.98199 3.97415 -1.48497 53 49 34
1.79969 3.96442 -1.5484 150 144 123
1.65781 3.95597 -2.01017 81 76 62
1.64929 4.07162 -2.00424 60 57 45
5.41766 5.97896 6.13781 94 84 59
3.24853 5.1097 -0.669446 85 82 64
3.26032 5.25856 1.74223 137 131 106
3.14644 5.42234 1.39948 115 110 83
3.14766 5.42303 1.40024 117 111 84
2.12889 3.21002 -1.30407 125 119 93
2.08623 3.54848 -1.47078 40 38 27
1.78661 3.52755 -0.691313 122 116 92
2.08545 3.62031 -1.23429 55 48 29
2.49465 3.59589 1.38094 141 133 107
2.51025 3.59662 1.29018 135 128 102
1.77167 3.59452 -0.469392 71 66 47
1.77534 3.58462 -0.630687 92 86 63
7.00251 5.05081 5.56992 135 125 87
6.85359 5.70585 5.82043 130 122 90
7.0168 5.81648 5.79094 105 95 64
6.99076 5.79739 5.76237 107 96 65
6.10636 5.89181 6.17377 126 120 90
3.56427 4.89639 1.06864 89 83 53
3.56427 4.89639 1.06864 89 83 53
