ply
format ascii 1.0
element vertex 1337
property float x
property float y
property float z
property uchar red
property uchar green
property uchar blue
end_header
-1.44864 -11.8063 4.80345 123 77 64
16.9309 8.9247 10.1201 169 167 155
0.994144 -2.06134 0.220351 72 76 78
-2.42226 -4.98773 3.73781 38 26 21
-1.96116 -7.04516 4.7872 141 85 70
14.0103 8.63088 8.67682 174 121 100
13.6037 8.57181 8.52814 166 119 102
1.94986 -3.09365 0.631156 105 51 21
-2.34982 -4.45398 3.70397 32 22 19
17.3543 9.03677 5.09586 100 71 64
2.03324 -2.71583 0.710562 12 69 55
-2.3833 -3.29471 3.65196 144 97 82
-1.51663 -11.1831 3.89789 108 60 50
19.6383 3.34128 3.55165 24 25 27
2.03473 -2.68395 0.701801 21 117 94
16.0781 8.8608 3.7217 132 82 66
1.09824 -2.30817 0.218592 90 93 96
-2.52981 -1.98209 3.80938 155 99 77
-1.66848 -12.1568 1.49655 29 26 26
17.3675 9.3464 3.62705 56 60 61
1.05339 -1.96988 0.197879 87 82 76
-2.62194 -0.697399 3.72761 130 83 70
-1.76601 -8.93814 1.74903 162 159 145
0.52845 7.1889 2.72098 83 50 42
1.09862 -0.947458 0.216095 101 114 125
-2.78275 0.251279 3.85285 199 193 175
-1.63318 -10.2993 1.8216 156 153 144
0.507089 7.13365 2.64306 150 146 142
1.0678 -0.819838 0.220878 83 85 88
-2.82795 0.583398 3.78132 197 196 183
-1.67036 -12.1564 1.77549 28 26 25
13.3505 8.54838 2.43432 125 73 60
1.99794 -3.61187 0.630823 116 69 38
-2.91466 1.43393 3.87894 118 77 65
-1.41005 -12.2993 1.74416 141 138 131
18.464 9.24057 2.47312 98 54 42
2.06975 -3.53918 0.629479 181 142 85
-1.96493 -7.12716 3.58641 127 84 71
-1.31854 -12.8812 2.03089 118 85 78
18.464 9.24057 2.47312 98 54 42
1.9978 -3.33524 0.62967 174 149 103
-2.00412 -6.73531 3.58686 134 83 69
-1.77397 -9.00174 2.39853 169 166 157
-0.0544971 7.08577 1.94588 50 31 25
1.9949 -3.28038 0.631695 152 106 50
-2.00359 -6.73484 3.58668 134 82 68
-1.41838 -12.1608 3.44756 155 155 147
15.2674 8.84316 2.15971 119 73 60
2.04559 -3.26832 0.628674 186 136 68
-2.09496 -6.24209 3.59775 131 87 69
-1.00731 6.92469 1.78831 17 17 18
2.01278 -3.00555 0.628416 194 154 93
15.1192 8.98891 1.6896 33 30 31
2.01278 -3.00555 0.628416 194 154 93
-2.309 -4.10007 3.54069 47 31 23
-2.49348 -2.38427 4.08047 189 190 181
18.3597 8.12749 1.25072 148 167 196
1.97429 -2.95508 0.629239 132 70 28
-2.39323 -3.32078 3.58565 146 97 83
-2.25494 -4.525 4.14828 188 183 165
21.6399 9.3178 0.613713 51 47 54
1.99848 -2.90574 0.62677 125 131 134
-2.39323 -3.32078 3.58565 146 97 83
-2.20982 -4.915 4.14757 186 180 165
2.95864 6.9709 0.717052 87 95 99
1.99761 -2.90578 0.62621 129 134 137
-2.43384 -2.91707 3.51946 160 107 79
-2.15281 -5.38233 4.14834 197 190 176
7.25955 5.72655 0.872158 24 19 21
2.08054 -2.75351 0.643714 14 45 36
19.0239 8.23701 0.64438 75 84 96
2.09278 -2.72869 0.651667 23 86 71
-2.65246 -1.31402 3.71611 29 21 18
-1.90733 -7.519 4.57408 195 185 165
19.6817 4.02983 0.719152 104 117 127
2.0244 -2.69203 0.636582 107 106 107
-3.20734 4.28746 17.2583 92 65 60
2.02713 -2.69693 0.631141 27 34 22
-2.82249 0.64052 3.64618 165 112 82
-1.80431 -8.49618 4.57938 181 180 167
-3.18695 3.97592 15.6491 177 177 175
2.01191 -2.65922 0.638333 109 101 91
-3.27004 4.85564 17.1111 99 69 67
2.01055 -2.63154 0.654046 22 51 34
-1.41258 0.479559 3.22945 35 28 24
-1.71694 -9.27354 4.7283 179 176 164
-0.401208 6.85984 18.3291 26 31 41
1.99131 -2.61769 0.629661 61 48 26
-3.58638 5.09887 16.1049 21 21 25
1.21475 -2.22224 0.207491 91 96 100
-2.11354 -5.68876 3.2905 156 148 131
-1.9266 -7.33808 4.85794 182 182 172
14.2892 8.59949 18.006 86 90 93
1.34544 -2.30255 0.200659 91 95 98
18.0789 9.78587 18.8145 79 84 88
1.34003 -2.06723 0.198909 106 117 126
18.2043 9.0027 18.1817 93 99 102
1.26536 -1.20392 0.223519 79 81 83
-1.98375 -7.06039 3.09554 178 172 161
-1.84466 -8.10495 4.86321 187 185 174
18.1015 9.08678 17.0527 162 119 110
2.18505 -3.81518 0.623747 157 101 44
-2.02755 -6.54598 3.09305 182 179 166
-1.62619 -10.045 5.15222 126 96 86
3.83724 7.54733 16.409 140 140 138
2.09106 -3.20232 0.627307 181 124 47
8.63505 8.01996 15.9452 47 46 52
2.08646 -3.18494 0.62672 185 127 46
14.3228 8.96302 16.5537 87 81 88
2.10927 -2.61998 0.617387 187 173 155
14.3228 8.96302 16.5537 87 81 88
1.40734 -1.30793 0.202119 103 120 132
14.1755 8.92744 15.9997 194 227 240
2.15626 -3.47608 0.568193 109 88 60
14.4865 9.02657 16.0555 201 228 242
2.15787 -3.02455 0.611655 157 148 130
-2.36632 -5.72765 3.03148 110 105 93
-1.20249 -12.8637 1.89014 116 108 97
15.0221 9.11301 16.0933 197 228 241
15.236 8.76476 15.664 204 200 192
2.19423 -2.71689 0.606666 78 82 86
-2.39918 -3.24082 2.88082 159 120 105
-1.69585 -9.57735 2.31695 170 167 155
0.530943 7.45996 15.5359 70 66 72
1.53469 -2.54018 0.18913 90 94 97
-2.58339 -1.74567 3.05997 34 38 36
-1.38347 -12.3096 2.5211 158 152 142
5.04664 7.6421 13.3328 227 224 211
1.63419 -2.56881 0.183923 80 83 86
-2.80452 0.256213 3.08521 191 187 169
-1.38832 -12.3103 2.67368 154 150 144
7.00243 7.8347 12.5596 181 177 170
1.53829 -2.44754 0.190198 88 91 94
4.78168 7.57798 10.0985 134 128 111
1.70009 -2.96692 0.180789 80 85 86
-2.07181 -8.42686 2.77284 27 24 25
5.49949 7.69344 3.2894 213 209 190
10.6396 8.50379 8.45581 81 88 90
1.71813 -2.59338 0.17765 83 88 91
13.7747 8.64186 4.31728 153 94 69
1.68851 -2.5551 0.180307 103 109 114
-2.19374 -6.56812 2.84247 127 84 71
5.49197 7.69382 3.36383 199 192 171
-2.22559 6.78937 3.72327 89 60 57
1.65177 -2.49785 0.180435 92 92 92
-2.37648 -4.021 2.81267 13 12 12
-1.97911 -6.87252 3.86551 190 186 173
11.4624 8.60984 3.18724 63 68 71
1.63251 -2.44353 0.18143 95 97 98
-2.3977 -3.5611 2.67634 173 167 156
-1.58902 -10.4976 4.07855 172 171 160
12.9568 5.86185 2.72136 124 79 68
1.64214 -2.342 0.183323 122 119 109
-2.43503 -2.77682 2.80364 142 96 83
-1.98587 -7.06293 4.15396 194 193 181
21.1439 9.91644 3.02302 16 17 19
1.7289 -2.3862 0.178507 113 120 124
-0.401883 7.0447 2.73542 99 55 42
1.73364 -2.3784 0.17654 86 89 92
-2.80516 -0.769433 2.87428 117 75 56
-1.57372 -10.8311 4.23391 169 168 154
0.400267 7.10506 2.7285 95 59 48
1.65881 -2.10116 0.182077 90 94 98
7.5692 8.21375 2.64375 47 44 46
18.3436 9.67138 2.24866 71 77 77
1.82972 -3.38973 0.173969 72 74 71
10.2991 13.2649 2.29739 55 51 53
1.81187 -3.04372 0.174621 50 51 53
-2.77381 0.0595368 2.87407 164 100 70
-2.17206 -5.44077 4.15691 190 182 170
15.3679 8.83657 1.67798 113 66 53
1.84752 -2.99159 0.171765 53 55 56
15.3679 8.83657 1.67798 113 66 53
1.77013 -2.61608 0.17352 70 72 75
-2.80331 0.458892 2.79839 138 91 72
-2.14816 -5.57545 4.15741 185 182 164
4.82932 5.86459 1.05302 26 24 24
-2.6545 -9.11751 2.78037 29 32 31
-2.07786 -5.76852 4.13674 181 180 166
18.3616 8.12437 1.03893 96 113 142
1.75492 -2.20355 0.176985 161 175 184
-2.07242 -6.22832 2.59888 181 179 167
-1.92549 -7.35696 4.36078 142 104 87
1.52014 6.17311 0.745303 81 90 93
1.7573 -1.91917 0.177766 104 114 123
-2.06996 -6.15997 2.59825 183 180 166
-1.7941 -8.47538 4.36302 135 87 72
8.5808 6.17193 0.819464 106 115 116
1.93805 -3.741 0.169885 60 61 63
-2.09726 -5.96591 2.59886 186 183 175
-1.60029 -10.4898 4.58295 174 163 145
21.1809 9.35234 0.404595 80 89 99
1.94797 -3.73063 0.170812 45 45 45
-2.07779 -5.88909 2.59329 176 174 166
3.2568 5.96201 0.455204 80 87 89
1.94013 -3.56943 0.168882 58 62 62
4.99955 7.55904 18.0093 89 95 98
1.97295 -3.5496 0.167945 40 40 41
-2.33453 -5.70873 2.52537 120 115 100
-1.5878 -10.622 4.58265 172 166 153
14.9136 8.73143 16.1976 198 224 241
1.96993 -3.48999 0.166225 40 40 40
15.0701 8.94021 16.1313 41 41 47
1.96333 -3.45143 0.165449 43 45 45
-1.57428 7.11598 15.1061 36 37 41
1.95716 -3.29193 0.167147 66 69 68
8.02739 7.96172 14.334 203 197 184
1.92685 -3.24507 0.167117 50 51 52
8.2852 7.98705 14.3386 212 197 181
1.8974 -3.24531 0.168677 78 82 82
-3.22076 2.00974 2.67084 55 62 61
-1.96739 -7.06534 4.57735 186 182 163
10.7424 8.24884 14.3419 209 209 210
1.909 -3.0922 0.168305 78 88 95
-1.9931 -6.86256 2.31702 183 180 173
-1.94134 -7.12818 4.57067 179 174 155
13.7381 8.58642 14.3452 212 211 205
1.8542 -2.59639 0.169206 71 73 74
-2.33834 -5.7135 2.39213 120 110 91
-1.94893 -7.26191 4.65632 188 183 169
15.2317 8.77878 14.3518 209 206 195
1.99827 -3.44171 0.166072 73 83 92
4.42764 7.91187 12.5894 157 183 203
1.99307 -3.4143 0.164869 65 68 71
-2.66315 -4.11388 2.46196 62 68 68
-1.93047 -7.39045 4.5771 193 187 167
15.0632 8.91701 11.9414 36 35 40
-1.90711 -7.61104 3.94612 59 38 33
-2.73033 -0.139217 2.30038 198 196 186
-1.90643 -7.45194 4.64509 189 184 171
15.0632 8.91701 11.9414 36 35 40
-1.9098 -7.57354 3.80184 59 40 35
-2.05777 -6.23922 2.10069 128 101 91
-1.90643 -7.45194 4.64509 189 184 171
-20.1807 27.4969 23.1277 144 154 161
-2.39518 -3.2006 3.90214 116 105 93
-2.07886 -5.95925 2.10423 144 91 70
-1.86916 -7.84834 4.57361 195 191 179
17.9732 9.28371 8.41085 70 75 75
12.2618 8.46817 7.8986 206 202 186
-8.21612 -3.64102 2.26712 125 73 59
-1.83401 -8.22573 4.65206 190 186 172
16.6809 8.95214 7.06885 184 180 170
-2.87429 0.929286 3.85937 146 96 75
19.6854 3.99925 3.38111 125 136 148
-2.91458 1.26589 3.79738 132 89 71
18.936 8.57515 3.73459 57 57 59
3.73405 8.29785 1.92773 31 31 30
-0.263918 6.86355 1.52603 85 86 74
-2.23669 -5.593 3.53488 49 32 24
-3.2874 2.46978 2.10771 82 48 41
-1.73274 -9.14128 4.57963 181 180 174
3.75709 7.8072 1.65227 24 22 23
-2.33147 -5.65834 3.4989 27 22 17
3.12323 6.03212 0.537715 34 39 46
-2.78317 0.26096 3.66039 174 121 89
-2.03359 -6.56036 2.02926 146 110 98
-1.63065 -10.0988 4.86593 183 177 163
7.39617 5.72231 0.309975 133 137 142
-2.885 0.577993 3.65179 110 90 83
-2.4519 -5.77828 2.04393 81 50 40
-1.61346 -10.3579 4.73613 171 168 159
-3.11948 3.42961 16.6626 145 145 143
-2.9036 1.28 3.70018 110 80 68
-3.82061 4.88046 16.6472 21 24 29
-2.38677 -3.26797 3.41204 131 132 128
-3.82061 4.88046 16.6472 21 24 29
-2.63599 -4.5298 3.29376 74 86 87
-3.96549 5.6434 16.1478 88 97 105
-2.36145 -3.53267 3.12944 104 94 79
-2.47595 -2.42091 1.93373 20 23 24
-1.56029 -10.6769 4.86527 178 176 166
-4.01852 5.68343 16.1939 87 96 102
-2.07845 -8.36282 2.91387 38 34 35
-2.48141 -2.52359 1.82105 194 188 171
-1.45708 -11.7584 4.87213 172 168 156
12.485 8.19937 16.7069 150 110 97
-2.11388 -8.32741 2.9464 18 16 17
0.647668 7.7483 16.7849 172 200 224
-2.12199 -8.35631 2.91651 37 34 36
-2.78531 0.190294 1.94413 160 162 173
-1.97271 -7.07111 4.73585 173 159 126
0.670389 7.36434 16.1846 31 30 35
-2.13975 -8.32632 2.94164 62 77 80
-3.2757 2.47428 1.88884 149 147 136
-1.88806 -7.71851 4.72741 187 180 167
15.4843 8.83543 10.3536 178 175 163
-2.44022 -5.14738 2.73323 51 46 47
-3.28764 2.48204 1.88874 134 132 121
-1.87553 -7.71499 4.9324 187 183 172
8.85198 7.89524 8.63382 165 111 92
-1.80212 -2.24069 2.43968 36 41 42
1.10342 7.52815 7.56605 33 31 31
-2.75863 -1.99099 2.47875 27 30 30
-0.799737 -4.48582 1.71908 15 102 60
-1.84877 -8.02989 4.85988 180 181 170
6.99363 7.83105 7.32488 209 205 190
-3.15894 1.32225 2.70616 44 39 40
10.7905 8.26908 4.63602 187 184 170
13.8774 8.605 4.93697 179 177 160
-2.36106 -5.70567 2.45569 69 43 36
18.7674 9.14335 4.64562 151 146 135
-3.50726 -4.50792 2.00485 25 26 28
-2.46782 -2.57668 1.61003 188 186 174
-1.79717 -8.54207 4.86296 183 179 167
15.7392 8.84236 3.38423 171 163 152
-38.747 27.8816 3.93717 87 98 99
8.82761 7.99029 3.07007 178 173 154
-2.69209 -0.57746 1.79936 190 186 168
-1.79019 -8.68567 5.01673 190 187 176
9.7044 8.15432 3.37945 181 183 174
-3.19791 1.39383 1.82374 26 28 30
-2.67862 -0.57642 1.79909 192 188 169
-1.73055 -9.19493 5.0159 183 177 162
15.231 8.8576 2.2975 192 188 177
-3.33207 2.38959 1.70272 23 21 22
15.6878 8.83625 2.29705 172 169 161
-3.32944 2.38805 1.64124 23 21 21
-2.70628 -0.450487 1.79716 181 181 163
-1.61455 -10.1758 5.01859 174 175 166
9.61458 7.7716 1.81092 112 110 99
-3.32984 2.38784 1.84555 22 22 20
-2.73201 0.562537 1.72057 197 192 179
-1.55654 -10.6792 5.01578 178 174 161
19.9763 9.15484 0.621535 97 105 124
2.11529 7.2643 16.6678 31 33 38
-2.44931 -2.62094 1.5779 132 134 131
-2.11668 -5.769 1.53618 178 176 161
-1.96327 -7.07024 5.01426 197 197 186
14.0503 8.99619 16.6292 198 230 241
-2.54084 -2.41872 1.49855 30 29 28
14.5871 8.90985 16.4795 198 227 240
-2.93448 -0.784596 1.58514 36 33 33
-0.804391 -4.47948 1.57462 25 28 29
-1.83815 -8.16675 5.01286 188 181 170
14.3246 8.96543 16.2245 96 90 95
-2.84257 0.807173 1.45053 20 22 22
1.6765 7.51831 15.122 173 200 228
-1.55687 -3.27982 1.44738 68 68 69
-1.81302 -8.43631 5.15349 145 102 89
11.6675 8.58559 15.0761 196 226 239
-2.14984 -7.84107 1.26003 43 39 39
-2.46664 -2.57934 1.46043 188 184 168
-1.68764 -9.6518 5.58423 197 194 184
13.7596 8.95744 15.1998 200 228 242
-1.97136 -7.20465 1.30966 117 99 101
-2.47637 -2.44815 1.53483 187 185 175
-1.6109 -10.4402 5.59181 192 190 184
14.5695 8.92871 15.1161 200 231 243
-2.50166 -2.45183 1.45936 179 180 173
-1.66949 -9.81498 1.30022 75 46 39
14.5695 8.92871 15.1161 200 231 243
19.4162 6.89582 12.8159 125 146 156
-1.22648 -3.29034 1.35334 73 73 74
3.78169 7.88871 7.09963 55 54 54
-1.29452 -2.85024 1.30197 49 44 40
-2.71953 0.01182 1.59316 203 199 186
-1.73159 -9.1606 2.61954 173 171 166
3.80093 7.73577 3.46141 14 14 14
-2.52793 -2.41171 1.28596 30 30 32
15.2375 8.87274 1.52021 173 165 146
14.9694 8.92862 16.8414 33 36 43
-2.77579 -0.765447 1.18943 126 97 88
18.3092 9.42006 12.7704 17 18 20
-3.55062 1.77456 1.27903 35 39 38
-2.08852 -5.87886 1.32193 112 90 87
-2.25412 -7.37687 1.27565 123 140 150
19.3668 6.13457 7.21389 18 18 19
-1.80122 -8.17723 1.06878 151 159 163
-2.28499 -4.56946 1.38603 113 129 140
-2.1558 -7.80962 1.18781 22 21 21
-2.64869 6.81111 5.9263 155 156 151
21.3463 9.6902 0.821736 12 12 12
-1.22563 -5.20068 1.18047 154 158 161
-2.56889 -1.29673 1.29231 42 48 50
3.62294 7.46362 3.89663 112 108 101
10.7066 5.96336 0.290753 134 140 145
-3.39323 4.33534 16.8128 21 21 22
-0.111791 -4.29828 1.26267 141 155 159
-0.956326 -4.64597 1.20612 39 36 34
-1.89732 -7.55154 4.78682 133 86 74
3.95679 7.51012 16.9401 95 77 78
-0.790691 -1.59596 1.19106 139 145 144
-1.45516 -12.1542 1.67794 101 61 47
11.7438 8.51735 6.42172 45 51 57
-2.92836 1.98118 1.02443 150 155 155
-2.59653 -0.751347 1.00315 121 125 124
-1.45656 -12.1561 1.67787 105 63 48
19.4016 8.11598 5.98979 97 118 123
-2.94845 2.09955 1.02267 132 139 139
3.73139 6.52815 1.3057 30 29 28
-1.30911 -5.52385 0.885598 66 44 28
17.5307 8.12737 0.719009 63 77 89
19.4029 6.59447 10.8809 37 39 41
-0.889147 -4.71295 1.0944 36 36 35
-1.56475 7.21651 7.4849 16 16 16
1.89773 7.50025 2.90571 34 31 31
-0.666125 -5.40573 0.938747 141 106 53
-1.31076 -5.6026 0.852068 107 85 61
5.99211 7.18733 1.72096 107 103 95
-0.608824 -1.99507 1.00896 144 187 239
-1.99514 -8.95646 1.4681 137 135 127
10.746 -2.62166 1.60117 38 36 39
-0.426891 -4.16527 0.978931 216 130 133
11.7688 6.70056 0.25907 113 119 122
-4.37352 -1.26126 0.379978 84 114 141
13.7647 8.73899 8.37986 85 93 96
-0.632838 -1.97861 0.993202 143 187 239
8.30961 8.0138 3.5602 48 52 51
-2.21861 -2.67684 0.380092 87 88 84
-2.03382 -2.39687 0.378868 157 160 157
-1.75817 -8.99151 2.6796 173 169 157
6.33235 7.34349 2.17622 23 22 25
11.541 8.57814 3.49781 45 41 38
-2.38612 -2.29037 0.391413 173 177 175
-0.435724 -5.75223 0.614586 74 86 87
-1.30963 -12.9599 4.79465 95 56 47
4.7715 6.3205 0.549326 43 41 41
-0.501273 -1.63237 0.793133 101 121 185
-0.203885 -2.03122 0.509221 31 31 29
-1.84599 -8.21138 4.22996 186 182 169
-1.45064 6.8028 3.35406 16 17 18
-0.365397 0.356724 0.523624 93 95 98
-1.79958 -8.56378 4.22973 184 181 171
7.95878 7.82559 6.5595 68 61 62
-2.84152 1.71018 0.397905 164 167 165
1.56715 -3.01308 0.952884 152 146 139
-1.62698 -10.4492 1.26155 119 73 59
7.95878 7.82559 6.5595 68 61 62
0.935088 -1.51412 0.794289 175 161 142
-1.648 -12.1973 1.46092 129 126 116
12.6913 8.48288 6.74624 154 149 137
-0.411347 -1.52716 0.729356 91 118 129
1.29193 -1.3515 0.927065 133 147 182
4.56894 7.61842 3.39608 62 65 61
-0.101727 -1.98545 0.580063 51 35 26
7.90394 7.91676 2.16757 63 71 73
-1.04948 -1.01535 0.33637 48 53 45
-4.46857 5.02734 19.5263 93 90 83
-2.49898 -0.358517 -0.0778847 61 62 61
0.406455 -5.46228 0.333559 78 75 72
-1.65288 -12.2014 1.74218 129 126 114
5.2641 1.96053 11.4357 139 99 92
1.55211 -3.00844 0.951544 153 146 139
1.77467 -3.44074 0.896058 94 64 48
-1.47787 -12.1438 1.74038 138 135 126
-3.56713 6.67853 11.2236 75 68 65
0.701892 -2.44838 0.662806 30 31 30
0.312032 -1.93668 0.260233 102 107 110
10.9586 8.83628 1.01798 161 166 165
0.882957 -1.54312 0.737409 107 109 110
0.945071 -1.76269 0.529623 211 228 241
-1.99725 -8.95391 1.62228 125 120 106
4.97194 7.71443 14.52 181 178 170
0.342914 -2.24509 0.259935 96 101 103
-9.84884 12.5635 18.2125 151 147 138
1.82621 -3.75288 0.924643 121 108 95
0.669692 -3.69128 0.233641 92 106 113
1.59967 5.14945 0.452118 87 90 91
1.80286 -3.59032 0.937244 107 90 78
0.654116 -2.72779 0.234919 75 79 81
-1.62221 -10.2928 1.82196 160 156 145
5.33148 6.9037 12.6168 161 116 104
1.78685 -3.45621 0.927785 118 101 85
0.951077 -2.14369 0.217082 79 83 85
-1.6542 -12.2005 1.89216 129 124 113
5.40847 7.65194 11.8177 39 38 44
0.188621 -4.09912 0.328699 120 107 98
0.90953 -1.97457 0.256385 86 75 65
-1.70515 -9.37609 2.0362 104 85 79
11.0893 8.59771 10.7816 102 88 94
1.76523 -3.28265 0.928413 117 97 80
1.39269 -1.77776 0.51489 74 76 79
-1.68069 -12.1635 2.35146 31 28 28
8.22771 8.20964 10.7978 182 215 232
0.824263 -2.57777 0.670826 139 150 155
2.05591 -2.72819 0.703123 23 107 85
-1.64787 -12.1977 2.39312 128 125 115
-1.25468 -12.8693 13.4662 151 148 135
-0.221968 -1.69836 0.278715 70 71 71
2.0335 -2.70589 0.709907 19 122 98
-1.64235 -12.1955 3.0209 125 122 115
-2.49459 -4.32351 3.28061 81 94 94
-0.0761478 -0.0148669 0.272748 82 82 83
2.0335 -2.70589 0.709907 19 122 98
5.4981 7.69978 3.16105 189 187 172
-0.929562 6.95729 16.7943 167 166 159
1.76298 -3.37431 0.882412 115 86 66
2.0639 -2.76287 0.659045 20 101 81
-1.74134 -9.12936 2.60422 176 174 169
-2.08781 6.6857 18.1922 65 69 72
0.820643 -3.34298 0.48932 104 93 81
2.08344 -2.76982 0.644924 21 103 80
-1.60557 -10.4402 2.88451 127 88 81
-1.82276 5.13686 0.529509 18 19 18
2.07017 -2.74169 0.684628 21 108 85
3.75021 7.71698 3.15099 116 114 106
-3.07452 3.22028 0.418427 131 132 129
0.316917 -2.27657 0.261499 105 110 113
2.07638 -2.74244 0.667742 16 48 37
0.590743 7.47074 3.42049 37 38 36
-2.74197 7.01205 1.87563 154 154 150
0.222142 -2.11462 0.264033 93 96 99
2.03436 -2.67124 0.661372 19 50 35
-1.73428 -9.19733 3.10174 180 170 153
-2.9065 6.74726 3.16498 160 159 153
0.885861 -1.89349 0.590238 104 108 111
2.05756 -3.01183 0.614224 185 133 54
3.78448 7.48116 3.34896 186 186 178
-3.40563 6.4719 5.35086 118 132 141
0.920533 -1.7334 0.535832 131 101 74
-3.17907 3.8659 5.90354 141 122 99
1.41459 -1.43006 0.758356 97 103 106
1.40763 -1.20025 0.206619 69 60 50
-1.64097 -9.98082 4.08082 173 169 154
-2.73368 7.11899 6.8369 97 108 111
0.618909 -4.68166 0.223265 60 64 64
1.73919 -3.27575 0.171898 53 54 56
-1.54567 -10.8914 4.22979 168 165 155
-1.83325 7.13812 6.57863 17 16 15
0.788563 -4.18757 0.346022 51 61 65
1.75785 -2.33272 0.176573 86 91 94
-1.74013 -9.13846 3.87984 180 178 172
-1.82286 -8.38353 8.68268 153 124 112
0.94657 -4.09129 0.416946 50 58 62
1.98799 -3.46339 0.16453 44 46 48
-1.68193 -9.60404 4.22931 179 172 153
-3.17948 3.88693 8.71292 141 89 74
1.98942 -3.39132 0.164732 46 47 49
-1.62985 -10.1237 4.23311 176 176 164
-2.61351 -1.21888 9.04419 172 170 163
0.627289 -3.7126 0.260101 47 52 52
-1.91238 -7.65363 3.91258 139 86 62
-1.63026 -10.3119 4.23727 173 171 159
-2.2532 7.08511 8.51017 51 53 54
-1.95429 -7.29964 3.85353 116 75 62
-1.77518 -8.82757 4.23075 183 179 165
-2.22687 6.82745 8.66579 160 106 80
0.457409 -2.26861 0.252872 107 110 114
-1.95662 -7.1543 3.87652 95 64 52
-1.7136 -9.34648 4.23246 181 178 170
-3.13428 3.95635 10.1494 74 69 61
0.548118 -2.22164 0.247515 97 103 106
-1.97436 -6.73648 3.92876 166 163 155
-1.82955 -8.29687 4.22895 181 180 168
-2.76896 0.728888 10.141 68 66 61
0.357644 -2.07309 0.257939 101 107 111
-2.03734 -6.6788 3.94878 171 170 166
-2.76108 0.232537 10.3233 65 55 47
0.842269 -4.34774 0.218466 12 12 12
-3.22474 -7.29535 5.2694 176 172 153
-1.8206 -8.49093 4.23235 180 177 166
-2.69253 -0.164172 10.3089 61 53 45
0.707768 -2.72339 0.237812 69 74 76
-2.00953 -6.4803 3.92715 170 171 166
-1.62308 -10.2255 4.86989 179 177 160
-3.21579 2.45485 11.9884 162 163 160
0.742677 -2.42051 0.237718 85 90 94
-2.05818 -6.42067 3.94476 170 169 162
-1.9605 -7.12874 4.14923 194 195 188
-3.35291 6.66981 12.3555 161 155 141
1.43598 -1.69736 0.595647 131 102 72
-2.03999 -6.22152 3.9327 171 170 165
-1.95095 -7.32361 4.15502 195 190 176
-2.72505 -0.180153 14.0907 176 174 164
1.02074 -4.21363 0.213706 33 34 34
-2.09402 -6.1598 3.95014 174 172 160
-1.95095 -7.32361 4.15502 195 190 176
-2.32088 -3.91614 13.947 200 199 188
1.0048 -3.05541 0.219766 43 43 42
-2.05339 -6.00002 13.8909 196 192 182
1.62725 -2.72074 0.598634 77 81 83
-2.37121 -3.51426 3.9424 192 185 168
-1.75401 -9.00321 4.94069 193 191 179
-2.69438 -0.437815 14.7152 178 170 163
0.994126 -1.81592 0.214285 30 28 29
-2.17041 -4.98047 17.3784 121 90 84
-2.39902 -3.24864 3.93946 190 184 165
-1.65871 -12.1994 1.81609 131 127 112
-1.82995 -8.36058 17.4063 123 90 85
0.957516 7.14886 13.2742 197 197 194
2.02763 -2.64744 0.695087 18 56 38
-3.00233 6.56007 18.1557 48 53 56
1.13115 -2.16642 0.214148 87 91 93
-2.60226 6.68752 18.1179 52 54 57
1.04959 -0.783824 0.222424 120 125 127
-2.81756 0.598197 4.05841 192 189 175
-1.3451 -12.7947 2.31393 138 128 116
-1.90641 5.58527 18.0546 63 68 77
2.02995 -3.64655 0.629845 119 123 125
-3.14282 2.97336 1.52984 179 177 166
2.06188 -3.45583 0.627847 122 127 130
-1.60635 -10.3095 1.74783 159 154 143
2.06188 -3.45583 0.627847 122 127 130
-2.73348 7.01149 1.8 149 148 138
2.05002 -3.38016 0.627041 183 140 79
-2.97463 6.75606 1.7975 126 125 117
2.03865 -3.37046 0.62858 205 166 103
-2.23783 -4.86351 3.73171 29 22 18
-1.4178 -12.0981 4.07427 162 158 144
-2.35815 -3.62322 2.31551 181 187 190
2.00612 -3.24964 0.62989 215 179 117
-1.72433 -9.25451 2.10686 125 91 83
1.97755 -2.96625 0.632116 209 170 102
-3.17371 3.36236 2.23701 180 178 173
2.03629 -2.86706 0.625801 136 141 144
-1.65084 -12.1953 2.67633 122 121 114
0.168617 -1.32864 -0.423851 55 54 53
-3.6771 5.72865 2.89192 115 78 67
1.40059 -1.25091 0.262608 111 105 95
-2.71179 6.78231 3.01742 170 169 162
-2.57654 -1.76543 4.14955 186 189 185
1.87325 -4.01351 0.391787 128 122 119
-2.56159 -1.81492 4.23001 187 187 176
2.15717 -3.59613 0.624898 189 156 104
-2.08065 -6.20293 3.59369 113 71 58
20.8671 -6.42136 13.0972 78 78 83
-2.55268 -2.07472 4.23161 178 176 166
2.1052 -3.34514 0.626212 177 120 55
-2.41828 -3.03672 4.22768 193 187 173
2.06503 -3.04112 0.620159 156 95 35
-2.39624 -5.65106 3.55598 45 28 20
18.5616 9.18382 2.0431 15 14 14
-2.31481 -5.43808 3.6008 36 23 18
20.8428 -5.78521 12.2791 35 31 34
-2.89582 1.21132 3.69463 155 117 104
17.7641 9.04856 4.63274 189 184 172
-1.97928 -6.80231 3.16566 177 172 156
18.588 8.17829 1.42485 144 105 113
-2.16548 -5.6743 3.22211 81 46 36
15.1816 8.77193 9.44611 183 169 151
-1.59694 -7.99338 2.82657 47 53 53
18.6935 9.17711 2.24922 141 137 129
-3.06779 -1.96084 3.18497 22 24 23
20.9065 -7.00627 10.5021 18 17 18
-2.33099 -4.00737 2.63558 41 42 43
18.5622 9.18423 2.76727 122 95 88
-2.84984 0.830095 2.67379 28 26 26
18.3678 9.13546 4.16165 168 163 149
-2.87016 -2.00591 15.1468 173 197 216
-2.44287 -4.02574 2.30026 38 35 34
17.4569 9.04705 4.23035 163 155 137
-3.33538 1.85616 2.1388 14 18 20
17.3441 9.02927 4.5852 175 165 144
-2.62929 -4.13078 1.92673 39 43 42
17.0583 9.00612 4.66087 179 173 153
-2.91154 -1.34367 12.0249 87 78 84
-2.14513 -3.93428 1.92452 35 38 37
20.9169 -7.0231 7.41568 15 15 15
-1.79592 -8.97747 2.31119 164 158 142
-2.30901 -4.00302 1.85083 41 43 44
17.9897 9.08805 17.7579 157 155 148
-2.68094 -0.643013 8.68067 142 101 89
-2.78576 0.247837 1.97386 111 79 69
18.6897 9.19171 2.40048 134 126 107
-2.5934 -1.16833 9.07894 199 188 174
-2.78576 0.247837 1.97386 111 79 69
18.6836 9.19734 2.83171 123 80 67
-1.95187 -7.23577 1.5 38 40 40
17.1364 9.00004 4.94566 164 152 131
-2.34215 -5.57489 12.6581 27 27 29
-2.96175 -0.842963 12.0294 34 34 37
-2.32089 -4.33956 1.44366 19 21 25
20.2721 -0.492396 8.74872 134 143 150
-1.19117 -12.8938 16.8594 50 49 50
-1.53336 -3.19181 1.56188 110 103 107
18.5451 9.18566 3.25614 106 75 69
-1.9579 -7.18247 1.32525 114 92 92
20.0835 0.362192 12.7322 188 196 215
-2.73552 -0.172964 12.4717 212 209 203
-1.20383 -3.1172 1.29926 84 84 91
21.047 -8.35406 3.82196 21 20 21
-1.65115 -12.1349 3.49347 11 11 10
-2.48216 -2.55344 1.32822 145 95 77
20.5611 -3.20758 13.234 35 35 38
-2.56018 -1.88968 4.04775 129 77 65
-2.18757 -4.3899 1.06904 23 25 26
20.2008 0.0379222 13.2363 29 30 33
-2.46953 -2.66979 4.79435 138 99 88
-1.2898 -12.7941 10.6566 165 164 153
-1.18419 -5.57632 1.02563 75 70 65
20.5043 -3.17981 12.2852 94 95 101
-1.18255 -5.57528 1.0264 75 70 65
20.4785 -3.69598 13.1635 54 59 63
-2.08218 -5.71539 9.94014 146 141 135
-1.47709 -3.06117 0.884389 22 26 30
21.228 -4.18831 17.4357 93 103 111
-2.59994 -1.48825 9.13528 201 199 190
0.050234 -3.27408 0.860241 113 117 116
20.4335 -2.5403 10.5635 97 91 95
-2.32752 -2.40125 0.395993 165 169 167
20.4981 -3.70121 12.2015 31 29 32
-0.541872 -2.12775 0.484056 157 167 171
14.8371 8.73358 4.50012 148 90 70
-0.767424 -2.09253 0.331579 16 15 14
14.7125 8.7266 4.50417 138 82 63
-2.31334 -3.9382 6.37662 199 196 188
-0.248406 -1.9553 0.621194 214 228 239
20.2649 -10.7851 12.2498 36 37 38
-0.248406 -1.9553 0.621194 214 228 239
13.4758 8.55177 10.2429 59 58 53
0.6928 -2.43212 0.620854 84 84 84
13.4216 8.56967 10.1259 199 197 190
1.64067 -2.78399 0.873264 33 36 36
16.2499 8.91495 4.80341 130 78 62
0.787519 -4.04528 0.345357 50 54 60
15.3115 8.80284 8.70509 158 103 85
0.644744 -2.19698 0.249029 105 108 111
21.6468 -6.97811 17.6718 92 101 109
-2.27547 -4.19167 13.8717 210 197 184
0.660815 -2.23449 0.240487 155 194 218
17.4399 9.05028 4.80524 131 82 68
0.660012 -2.23432 0.240047 155 195 218
17.4399 9.05028 4.80524 131 82 68
-2.84404 0.667919 12.9445 153 110 98
-2.83958 0.718375 13.4174 201 199 188
0.822189 -1.25704 0.111197 66 67 69
18.7794 9.15842 14.6179 94 89 81
2.09649 -3.4355 0.633698 203 160 89
22.078 -8.83921 17.5825 62 69 77
-2.03667 -8.91669 2.46345 29 24 23
2.03573 -2.67641 0.67937 127 139 163
17.8997 9.13073 17.0351 53 45 46
-2.48381 -2.50722 4.78357 152 94 76
2.13102 -3.56342 0.625304 174 121 53
15.7803 8.86409 3.9481 187 181 161
2.13102 -3.56342 0.625304 174 121 53
16.7633 8.93006 5.57016 49 48 49
-2.55999 -1.70773 4.78218 141 88 73
1.42079 -1.85151 0.196394 73 76 80
15.1834 8.79173 5.02205 185 180 166
-1.97652 -7.26184 3.47623 17 18 17
13.7289 8.60892 4.85971 191 176 165
-1.99026 -5.23607 3.5613 38 24 18
14.2924 8.66289 5.22212 112 69 58
-2.20865 -7.73682 2.71601 43 47 49
20.4537 -4.38238 10.4239 75 72 68
-2.1803 -5.69499 2.45972 82 46 36
16.4139 8.91343 13.4206 198 194 184
-2.18204 -5.69613 2.46008 83 46 35
18.8634 9.21545 3.81426 149 145 139
-2.63538 -1.02789 2.65174 95 106 109
-2.92166 -0.807215 2.56613 37 34 35
19.0106 8.81484 4.41563 60 50 45
-1.97121 -7.25748 2.34376 29 31 31
18.2369 9.14482 4.24114 161 151 137
-1.54672 -10.6588 13.854 190 191 182
-2.73771 -0.74434 2.44949 74 51 45
16.2247 8.90598 3.65535 145 96 79
-3.18276 1.19386 2.34587 53 58 57
18.043 9.13443 4.745 171 156 144
-2.27004 -4.24161 13.1276 176 128 109
-2.14201 -8.23923 2.14151 35 38 40
17.3212 9.01406 4.44083 142 102 88
-2.32095 -3.69256 13.6971 220 220 217
-3.24482 1.96467 2.30189 49 59 61
17.1989 9.02579 4.37606 140 98 86
-2.12728 -5.66511 1.67701 99 58 41
15.8507 8.86054 4.07731 171 159 141
-0.999368 -4.50598 1.65709 94 101 112
16.2436 8.89755 4.22647 186 176 159
-2.47364 -2.35542 13.8942 195 189 178
-3.16869 -4.2414 1.62508 43 51 48
15.9062 8.87422 4.22811 175 168 148
-2.71591 -0.440245 13.9348 216 209 204
-2.96711 -0.795773 1.76646 42 37 38
15.7675 8.8341 4.43808 159 106 85
-1.18941 -5.44747 1.09151 59 53 44
-1.2807 -3.07414 1.44985 61 49 45
14.6085 8.70687 4.14143 163 158 137
-1.39902 -2.93015 1.31581 109 118 122
20.8019 -7.08254 5.51226 35 33 31
-0.805839 -4.44193 1.71523 164 181 196
-0.690808 -6.01548 1.08432 140 101 46
20.8514 -7.80809 13.1868 34 34 35
-1.24465 -12.8619 10.1849 146 138 122
-1.31363 -5.57277 0.903906 73 52 32
16.9601 8.97128 14.4506 195 190 174
-1.53578 -10.377 10.1405 66 63 59
-1.78711 -4.86653 1.00068 62 68 70
18.8063 9.21082 3.6757 119 88 81
-2.78506 0.690262 0.430417 126 128 128
18.5413 9.17555 4.45708 155 109 85
-2.06625 -5.73225 10.1508 65 63 60
-2.19384 -0.302227 0.340544 104 123 136
17.8278 9.09028 4.37863 144 98 84
-2.05674 -8.48356 11.9381 156 187 197
1.02038 -1.34341 0.896026 116 50 53
17.7698 9.08274 4.45085 135 78 61
0.397641 -2.08586 0.255166 132 158 175
16.8529 8.97562 4.44445 135 85 71
0.825235 -4.2805 0.225929 9 9 9
17.7218 9.06464 4.94507 179 170 157
0.676427 -3.50491 0.243143 65 70 72
17.7311 9.07297 5.02167 169 152 139
-2.05312 -8.50006 15.9188 186 209 226
1.79633 -3.2341 0.539223 212 173 106
17.127 8.99907 4.65752 181 175 157
1.97584 -3.66352 0.618366 199 163 106
17.3885 9.0202 4.94177 171 164 150
-1.21168 -5.14924 1.06885 82 78 73
2.10562 -3.30541 0.624465 193 149 76
21.2152 -9.4068 12.6472 92 94 92
1.38855 -2.00571 0.212281 43 40 36
-1.35219 -5.22001 1.22726 188 199 211
1.41937 -1.37498 0.199418 95 99 104
20.7331 -5.44277 12.7162 191 200 215
-0.829585 -4.69823 1.64424 73 47 28
1.5432 -3.86894 -0.0313938 61 64 66
20.6449 -4.80136 12.7078 198 205 223
-2.13086 -7.66448 3.55544 51 55 56
20.5399 -3.49938 12.7372 196 204 221
-72.5295 46.0002 25.6938 156 112 100
12.7083 8.49792 4.17417 189 178 161
-3.2226 1.3308 3.54056 12 13 12
12.436 8.47267 4.17053 183 175 162
-2.53053 -4.48062 12.6271 151 182 198
-2.42437 -2.96977 3.23524 132 82 67
21.3177 -9.7316 13.234 25 25 28
-3.1568 1.17239 3.17786 59 62 58
18.7622 9.20809 2.30929 143 137 128
-1.33106 -5.28179 1.25591 82 103 75
-2.33421 -4.02948 2.69184 21 20 20
13.999 8.63404 4.17433 146 138 119
-2.73505 -0.358614 2.73291 126 79 65
16.6423 8.88063 8.69988 151 97 77
-3.27143 1.91766 2.96996 42 37 38
16.6423 8.88063 8.69988 151 97 77
-2.18404 -4.98593 4.85734 186 182 170
-2.31691 -4.02116 2.57283 47 49 50
20.8135 -6.92149 13.1328 34 38 42
-2.11182 -3.5459 2.44216 115 71 60
18.3736 9.44745 3.25672 20 19 20
-2.49139 -2.43092 2.44998 85 53 40
18.4563 9.16514 3.39661 153 147 138
-2.47485 -2.43135 2.44859 81 52 39
17.6073 9.05612 4.19636 72 59 42
-2.00154 -6.70736 1.97032 103 96 95
14.3606 8.69916 8.76121 162 120 102
-1.01408 -3.26239 1.60155 148 128 24
20.5175 -3.76967 5.5707 83 84 88
-1.2696 -3.28555 1.50919 21 23 24
13.4506 8.58974 8.23968 200 199 195
-2.71625 -0.434008 1.46393 188 185 174
19.9335 1.8336 12.2332 59 55 58
-3.7229 2.41151 1.28897 89 103 105
16.788 7.94804 0.807661 63 78 91
-1.0911 -4.31458 1.10847 50 58 60
18.8042 9.18225 8.08078 131 126 121
-0.31647 -4.39421 0.715177 76 109 156
16.7233 8.91479 10.2445 59 55 49
-0.31647 -4.39421 0.715177 76 109 156
20.4414 -3.04499 12.3869 194 202 220
2.388 -2.93822 1.12337 116 127 133
20.4414 -3.04499 12.3869 194 202 220
-3.04291 2.51159 12.5733 153 151 146
1.36893 -2.00181 0.244086 129 115 96
15.2667 8.76933 12.9185 157 116 99
1.65098 -3.24631 0.184074 63 65 67
17.5964 8.07403 0.620643 64 74 81
2.03976 -2.82836 0.518083 14 17 16
20.0992 0.810568 1.25855 118 125 120
-2.48355 -2.55364 3.92851 187 186 180
20.0992 0.810568 1.25855 118 125 120
-1.82765 -8.37786 4.96418 183 180 171
-2.83557 0.426513 3.71564 139 86 68
17.0483 7.99015 1.13389 63 72 77
-1.70278 -12.1381 1.67036 33 28 30
-1.84597 -8.13113 4.64444 191 190 181
-2.78414 0.270166 2.75398 127 78 60
-3.32075 2.42416 2.57534 47 42 44
-2.33049 -4.01912 2.46772 33 35 36
-2.49655 -4.67017 2.21619 61 72 72
13.3386 8.56683 3.16155 187 182 166
-2.64172 -2.0403 2.17624 60 65 67
12.734 8.52367 3.16061 195 194 187
-1.63801 -3.37736 1.6505 135 61 59
12.738 8.52262 3.44436 196 188 170
-1.57408 -3.50635 1.59161 180 179 171
21.4344 -10.252 7.25379 94 106 107
-1.24439 -2.99745 1.264 20 20 20
17.9005 9.08611 8.97367 137 89 76
-2.63286 -1.46584 1.1559 90 111 120
13.9489 8.65855 9.08671 211 205 196
0.613901 -3.76491 0.241079 24 24 22
14.981 8.75045 12.8248 194 154 137
1.08375 -4.32469 0.216128 28 28 25
18.9059 8.54808 17.8421 66 74 80
-2.33348 -3.85494 3.91393 184 184 170
18.4328 9.30501 16.7228 124 130 139
-1.91027 -7.48754 5.08828 121 92 82
-2.48177 -2.49118 3.39434 186 182 169
19.8798 1.89697 1.20086 29 27 29
-1.39818 -12.3979 1.24503 86 72 68
-2.37967 -5.68636 3.26139 18 17 16
12.8839 6.14899 2.32323 147 173 187
-3.95784 -1.40531 2.82433 63 70 70
18.3927 9.32838 2.90265 98 66 59
-2.89013 0.741457 2.59658 184 177 164
15.5779 8.85676 3.17334 186 184 176
-2.44657 -5.71483 2.4633 29 25 23
-2.92741 -0.78678 2.45782 39 35 34
13.4674 8.60103 3.16405 185 180 167
-2.95616 0.921377 1.22855 38 36 38
20.8622 -7.79897 3.92314 34 32 31
-1.21569 -2.84242 1.24212 31 31 29
20.8561 -7.79607 3.92137 34 31 30
1.4315 -4.52774 1.0895 13 15 15
14.3465 8.68983 4.22412 184 178 162
-0.0626644 -3.51147 0.734324 225 232 235
14.098 8.63967 4.56999 187 186 173
1.36376 -1.3489 0.205571 50 51 51
21.3862 -10.252 5.67087 98 111 114
-1.86725 -7.95172 4.2252 182 178 164
-2.19745 -7.81695 3.67908 5 5 5
13.2619 8.57773 4.72984 195 191 180
-1.81544 -8.41912 4.58039 183 176 159
-2.82082 0.227178 3.38738 165 164 157
20.8293 -7.04182 8.82192 29 29 28
-1.80022 -8.55042 4.58034 184 183 171
-2.8438 0.738031 3.0713 179 177 167
20.5001 -4.56462 8.80933 31 30 30
-2.72304 -0.688797 2.6077 177 175 159
14.7262 8.73998 9.07054 158 148 137
-1.94892 -7.19757 4.72863 183 179 166
-2.70454 -0.683527 2.2958 178 175 159
19.0931 8.3891 13.2336 24 25 26
-2.77445 -0.389431 1.97656 105 71 60
20.1165 0.0978996 13.149 38 38 43
-1.88127 -7.64442 4.85628 186 182 173
-2.37199 -2.36237 1.67477 19 20 17
17.6854 9.04943 13.2222 137 91 79
-1.84516 -8.10126 4.72749 188 186 177
-2.90145 0.725955 1.80559 188 180 159
17.7215 9.03046 13.3312 204 198 186
-3.34491 2.44648 1.68861 35 31 33
15.5347 8.80325 12.4945 176 171 161
-0.859756 -3.74296 1.46104 12 12 13
13.7271 8.6128 14.4531 199 200 199
-2.38172 -3.35456 4.7227 181 179 168
-2.70366 -0.687546 1.49874 175 172 162
18.6332 9.17338 2.32707 144 138 130
-2.19703 -5.0477 4.86604 187 184 169
-1.54254 -3.65842 1.35414 70 75 85
18.4036 9.37866 2.1188 100 65 59
-1.63172 -12.1831 1.32527 99 67 59
-1.20918 -12.8715 1.81636 103 103 96
-2.68295 0.402443 0.88393 128 135 135
18.5574 9.16479 3.6764 133 106 98
0.990301 -1.28305 1.09321 141 144 143
16.2821 8.90625 3.57952 141 97 82
-1.21002 -12.8723 1.73877 111 106 99
-9.82469 -15.0327 -3.04122 163 157 142
15.6571 8.82707 3.29025 184 183 173
1.57581 -3.21771 0.778027 97 104 105
2.05808 -2.69405 0.594625 210 173 106
16.5589 8.95192 3.94789 182 180 173
-1.4104 -12.2982 3.01925 147 141 128
2.06332 -2.69452 0.598467 207 169 104
16.375 8.91326 3.94298 180 177 171
-1.75004 -8.92308 3.09901 169 162 138
1.46075 -1.43438 0.20071 95 101 104
16.0559 8.90144 3.66247 158 110 88
-2.04794 -7.18724 3.4137 168 169 163
17.7224 9.05268 4.57871 185 183 171
-2.43257 -2.77626 3.38815 189 185 170
16.5045 8.92504 4.22658 167 157 140
-0.797407 -4.39142 1.65398 120 138 167
15.5948 8.8232 4.07348 168 160 142
-2.78589 -2.51741 1.51733 177 172 161
15.8488 8.83627 4.36331 164 114 90
-2.64051 -2.30028 1.08342 161 165 166
19.0654 8.42655 5.50216 33 30 28
-1.45651 -11.6648 4.22606 156 150 135
-0.403484 -3.96777 1.00601 231 238 241
16.4161 8.90944 4.72971 169 155 136
-2.17895 -5.31107 4.15568 189 188 174
2.07491 -2.6159 0.621502 212 174 107
16.0438 8.86266 4.57484 187 190 181
-2.17206 -5.44077 4.15691 190 182 170
1.92276 -3.55505 0.195079 57 58 59
15.503 8.82582 4.37391 153 102 83
-2.84762 -0.850156 3.49453 17 17 16
15.4442 8.81475 4.44424 150 100 81
-2.11397 -5.50466 4.14094 188 183 164
-1.65886 -7.07629 2.72401 19 18 18
15.386 8.78695 4.57281 196 183 170
-3.06921 -1.89314 3.70518 20 19 19
14.1839 8.66272 4.36625 147 96 77
-2.21335 -8.15427 1.86827 73 93 104
15.7634 8.84249 5.15818 127 80 66
-2.48688 -0.61132 2.42086 89 68 61
14.0326 8.63546 4.64768 185 178 161
-1.58081 -10.5527 4.57904 177 168 151
-2.85142 0.594408 2.43129 154 107 87
13.9473 8.63724 4.43538 131 87 75
-1.53154 -10.9369 4.57888 168 163 152
-1.48754 -11.5132 4.58448 171 165 150
-2.96056 0.598109 1.67135 148 91 62
15.4495 8.7946 5.2251 109 62 51
-1.45769 -11.7673 4.58413 173 167 156
-3.07908 0.701319 1.67902 139 80 51
13.4802 8.58647 5.59987 190 189 179
-1.96581 -6.99602 4.57455 184 184 174
1.48201 -1.72064 0.151313 94 98 103
20.8687 -7.80281 8.80663 29 28 28
1.9726 -2.94903 0.57881 204 163 93
20.8494 -7.80751 13.185 34 34 35
-3.09065 0.11773 2.49858 124 88 76
20.4966 -4.56871 13.1942 38 39 41
-1.90995 -7.56423 4.43891 148 104 90
-2.15282 -4.99496 3.86296 138 85 67
-2.5267 -2.17596 3.89339 74 45 31
17.417 9.02919 12.9346 161 114 97
-2.5267 -2.17596 3.89339 74 45 31
17.4802 9.02797 14.4511 187 181 168
-2.58526 -1.67219 3.86847 65 41 30
18.4907 9.12073 15.9582 222 218 208
-2.63968 -1.03215 3.91993 139 90 78
16.4399 8.91786 14.5495 190 187 177
-1.83545 -8.15981 4.72608 188 184 174
-1.82548 -8.28956 4.72803 186 179 168
-2.68429 -0.699727 3.91309 192 194 183
18.4184 9.1977 2.76963 104 76 70
-1.80975 -8.48932 4.73243 180 180 170
-2.68533 -0.691331 3.89504 78 62 44
18.4123 9.32293 3.11005 128 113 90
-1.79887 -8.54608 4.73029 178 180 173
-2.73712 -0.24771 3.76869 192 196 184
18.5511 9.17615 3.59967 116 90 86
-1.78509 -8.67757 4.73088 181 173 154
-2.73323 -0.209778 3.90993 198 198 187
17.8845 9.13258 4.67656 184 176 164
-2.74427 -0.166892 3.89317 81 54 31
16.3518 8.92409 4.44546 142 92 75
-1.73365 -9.19776 4.58118 183 179 171
-2.77308 0.0139795 3.91379 179 184 173
17.5123 9.05685 5.02771 176 169 154
-2.80946 0.554413 3.76144 184 186 174
17.3642 9.03259 5.1681 129 81 66
-2.84181 0.650179 3.836 184 187 171
18.3938 9.36455 5.747 174 161 147
-1.60066 -10.2953 4.86557 176 172 160
-2.86605 0.941745 3.83503 67 45 39
16.7201 8.95151 6.44288 183 183 174
-1.60842 -10.3564 4.87003 172 168 158
-2.9083 1.3004 3.72624 54 43 40
20.0437 1.45169 8.3408 31 33 34
-2.9083 1.3004 3.72624 54 43 40
20.0095 1.87934 12.1578 189 203 214
-1.85628 -8.09646 3.82512 99 69 60
18.8479 9.15644 16.8545 124 85 75
-1.98009 -6.81529 4.86027 188 179 166
-1.85628 -8.09646 3.82512 99 69 60
21.022 -3.9025 17.6849 253 255 254
-2.01722 -6.62619 3.67545 134 90 77
21.191 -3.8152 17.8724 254 254 253
-1.90546 -7.52369 4.85794 198 195 184
-2.29165 -4.34724 3.80289 77 55 47
20.7402 -4.39752 17.8409 253 254 253
-2.29673 -4.23917 3.64044 131 85 73
20.9472 -3.84189 17.8702 254 254 253
-1.85852 -8.02954 4.72752 184 180 167
-2.32387 -3.85635 3.63312 149 95 73
20.6529 -3.8568 17.8125 254 254 253
-1.82089 -8.28969 4.86161 183 183 168
-2.42123 -3.0134 3.61885 60 42 32
20.4286 -1.14195 17.7663 254 254 253
-1.83788 -8.15845 4.86236 188 186 177
-2.4698 -2.59794 3.70946 168 113 82
19.964 2.07833 17.7815 253 255 254
-1.82017 -8.36272 4.86444 188 182 167
-2.5822 -1.77653 3.72918 45 30 24
18.7069 8.8738 4.18997 71 67 67
-1.80876 -8.41502 4.86189 188 182 165
-2.61076 -1.52791 3.73834 49 32 24
19.8689 -1.53968 0.916039 153 163 172
-1.78672 -8.61311 4.86184 183 181 169
-2.69439 -1.04242 3.6334 46 30 24
21.1988 -3.6395 17.9252 254 253 247
-2.68603 -0.660593 3.70755 128 95 81
19.5132 -1.02331 1.63735 157 159 161
-1.65417 -9.791 5.01209 176 164 149
-2.73904 -0.171672 3.74889 57 38 26
19.5132 -1.02331 1.63735 157 159 161
-2.75261 -0.0950933 3.68129 58 39 27
20.0783 -0.457271 2.93473 29 28 29
-2.7425 -0.164509 3.61034 69 49 35
19.5798 -1.02527 3.63468 171 172 172
-1.35729 -12.5093 5.21891 87 70 65
-2.75957 -0.033413 3.61005 67 45 33
10.5334 8.24667 8.89204 162 119 110
-2.75957 -0.033413 3.61005 67 45 33
21.0754 -4.11875 17.7359 254 254 253
-1.94291 -7.33521 5.0177 179 178 164
-2.7644 0.0332474 3.69876 152 105 87
10.7087 8.278 4.30307 130 95 80
-1.8273 -8.29852 5.01601 191 186 171
-2.81515 0.541215 3.67717 64 42 36
19.1784 8.3467 8.78958 107 106 101
-2.81063 0.467406 3.59407 173 113 78
9.98088 8.16636 6.59668 180 177 172
-2.82602 0.600931 3.62484 147 106 81
20.0508 0.831059 2.78746 122 127 117
-3.21028 1.48866 3.73078 14 13 11
10.0075 8.18982 4.79202 118 88 76
-1.66949 -9.81498 1.30022 75 46 39
-2.07954 -8.57749 3.68748 17 17 15
20.6615 -4.97027 12.3867 191 202 219
-1.97064 -6.89694 3.07221 189 183 164
-2.11054 -7.83766 3.6219 49 58 57
10.1147 8.20504 3.16322 195 183 162
-2.11054 -7.83766 3.6219 49 58 57
10.0228 8.20647 3.16661 196 194 182
5.54946 7.70736 3.38071 181 177 160
-1.94924 -7.24957 3.5228 119 71 60
9.8482 8.17809 3.16306 198 197 189
-1.61097 -10.1752 3.85685 179 176 168
-2.06404 -6.14406 3.59948 135 86 70
19.7767 1.81966 5.42568 167 167 167
-2.26406 -7.37906 1.2752 123 139 150
-2.09854 -5.92021 3.63951 144 98 80
9.91764 8.18186 3.93839 201 199 191
-2.47143 -2.48053 3.55145 69 58 52
9.65738 8.14579 3.93395 199 192 171
-2.46664 -2.48036 3.54938 77 63 55
16.6187 7.9879 1.33888 68 76 82
-3.20527 -0.869326 3.54795 41 44 44
7.15962 7.86237 3.6148 133 98 85
-1.89732 -7.55154 4.78682 133 86 74
-2.73596 -0.231 3.39741 57 44 33
12.2884 8.46494 3.94375 196 195 190
-2.75102 -0.120897 3.52854 169 110 77
10.1085 8.20306 3.4423 201 195 176
-2.7517 -0.100103 3.39763 54 40 28
10.037 8.20495 3.44277 198 190 178
-2.78385 0.157706 3.54102 67 47 36
10.0384 8.19678 3.36509 195 187 167
-1.37525 -12.7268 2.94857 120 81 72
-2.78385 0.157706 3.54102 67 47 36
11.0209 8.30041 4.13838 189 185 169
-1.42863 -11.9354 4.80077 127 81 68
-2.7781 0.099001 3.47119 66 47 36
10.8117 8.29531 4.14684 196 186 167
-1.42863 -11.9354 4.80077 127 81 68
-2.83559 0.617775 3.46897 59 41 30
10.1794 8.20927 4.07 200 192 174
-1.51278 -10.4688 0.360933 77 76 71
-2.8385 0.773239 3.48782 152 101 77
9.52527 8.1392 4.14765 183 178 166
-2.72638 -0.233058 3.25418 65 48 34
9.84793 8.16082 4.57042 185 182 171
-1.61251 -10.3097 1.46623 160 157 148
-2.74707 -0.104288 3.25407 58 42 31
10.1577 8.20592 5.00692 194 187 171
6.97353 8.09812 1.72812 120 121 116
-2.78305 0.183767 3.20814 153 94 66
17.4765 9.0317 13.3896 203 199 187
-1.67296 -12.1571 1.8499 32 27 27
-2.79253 0.289408 3.25473 67 49 36
19.7212 -1.36345 0.676332 35 36 33
-1.70924 -9.39741 1.89912 168 166 162
-2.81099 0.422513 3.25604 60 43 32
20.0159 -0.600972 1.11306 39 38 36
-2.12557 -7.85167 3.24042 46 52 53
15.1154 9.31139 3.17232 88 86 78
7.01126 7.85324 2.87176 140 86 67
-1.9639 -7.21011 3.22031 128 81 65
-2.69771 -0.623931 3.05593 111 98 84
19.7797 1.91216 3.91572 41 40 40
-2.75874 -0.0357832 3.18506 71 49 35
13.0798 8.53015 3.44147 178 175 163
-2.77575 0.0920265 3.0455 80 66 53
12.8746 8.50762 3.36436 198 194 180
-2.78862 0.355605 3.11891 103 87 71
12.8836 8.51362 3.65463 156 102 82
-2.80292 0.358327 3.04417 63 49 36
12.8157 8.49631 3.86045 200 194 179
-1.61233 -10.4427 1.5419 163 161 154
-2.82885 0.546333 3.11887 71 52 36
12.6186 8.47921 3.7861 194 192 185
-1.64802 -12.1959 1.61074 130 126 114
-2.83428 0.62019 3.18823 57 43 33
12.0939 8.43799 3.65661 157 100 77
-2.83361 0.619772 3.18795 65 49 38
13.0543 8.51965 4.13862 191 182 166
-1.97103 -7.21514 3.04548 169 168 161
12.8584 8.52384 4.36601 155 113 101
-2.07112 -4.36518 2.78247 83 83 85
-2.45369 -2.68559 2.84587 59 43 33
11.7302 8.3716 4.92788 200 197 179
-2.67805 -0.734702 2.92937 150 97 75
11.3287 8.34854 5.01158 187 176 159
-2.79955 0.336878 2.99234 198 199 191
10.3654 8.23259 4.64901 204 199 180
-2.80633 0.413057 2.83554 62 45 36
20.9664 -6.46694 7.48054 58 59 65
-2.82983 0.602061 2.99442 202 195 175
10.3061 8.21025 5.21381 123 80 68
-6.74081 3.5741 3.53393 30 28 28
10.1059 8.18561 5.13812 138 92 77
-2.02753 -8.89955 2.85489 32 30 31
9.53004 8.13484 5.1463 143 104 92
-1.9009 -8.93843 2.75926 76 53 41
9.19965 8.08454 5.72395 191 187 177
-2.32053 -3.97266 2.61888 188 184 166
20.457 -2.65849 1.2479 128 137 133
2.26219 -2.42438 1.8422 54 60 60
20.4043 -2.5338 2.8789 44 44 48
-2.67837 -0.735055 2.78456 134 91 77
18.0023 9.12045 3.72973 131 85 71
-2.77271 0.0269228 2.78437 128 119 112
14.6764 8.72031 4.22383 178 172 156
-2.78192 0.0878482 2.68299 167 160 143
14.401 8.703 3.98065 146 87 68
-1.51681 -11.2405 4.04186 138 83 66
-2.80245 0.35379 2.76339 64 47 37
13.3807 8.63432 3.67699 153 101 80
-2.82073 0.482946 2.62096 61 50 39
13.9515 8.64099 4.14697 170 161 143
-2.84356 0.682245 2.69471 49 39 31
17.4951 9.3185 6.6902 103 104 103
-2.83672 0.696609 2.67948 191 184 159
16.1774 8.89788 12.0334 183 176 164
-1.87066 -8.91411 2.4888 50 37 32
16.4139 8.9154 13.4216 197 194 184
-2.30979 -4.02094 2.47926 47 54 53
19.5349 -0.774145 1.64627 113 114 113
-2.83782 0.655723 2.49386 199 196 186
19.6049 -0.766821 3.86203 40 38 36
-2.20643 -7.90382 2.38408 44 45 45
19.7756 1.94124 5.51388 56 51 49
-2.32107 -3.97297 2.338 194 187 172
15.1773 8.85828 5.67253 185 169 153
-2.85337 -2.39252 2.3859 72 79 79
19.1843 8.39176 13.1489 27 28 28
-2.8146 0.422637 2.40742 49 40 33
16.2039 8.91431 4.64764 183 179 168
-9.19245 4.94069 2.95021 63 69 64
14.5058 8.69426 4.18633 89 70 53
-1.77145 -8.90895 2.07576 53 36 30
14.5058 8.69426 4.18633 89 70 53
-2.09354 -5.99395 2.18149 120 112 108
14.2515 8.67178 4.18587 95 72 54
-2.72684 -0.427159 2.14582 113 100 93
14.2515 8.67178 4.18587 95 72 54
-1.7847 -8.75763 4.58303 187 178 167
-2.74944 -0.186669 2.17802 138 136 140
14.1086 8.91224 3.18346 74 76 73
-1.41112 -12.2191 1.2571 107 77 71
-2.73328 -0.275966 2.03522 182 195 208
15.3618 8.79258 4.50202 144 94 76
-2.74454 -0.188652 2.03701 186 193 203
12.8592 6.34123 0.35185 19 20 19
-1.42011 -12.1746 1.81845 148 145 137
-2.74326 -0.171798 2.01034 110 86 76
15.0568 8.77713 3.61747 147 107 95
-1.45722 -12.1118 2.02867 103 65 54
-2.75829 -0.0523859 2.17496 174 177 186
16.8817 8.97522 4.00915 130 86 70
-1.65591 -12.2007 2.31653 131 130 124
-2.75843 -0.0149614 2.13986 167 173 184
13.4743 8.58302 3.93771 191 178 165
-2.77542 0.0938087 2.08895 167 112 84
27.888 10.1373 8.1323 49 50 48
3.76436 7.48946 2.99903 182 176 164
-2.77715 0.0965282 2.01143 92 64 57
17.0246 5.64949 0.291532 71 72 75
-1.37608 -12.5555 3.01561 152 147 139
-2.79051 0.249405 2.14052 177 177 184
3.77355 7.48566 3.27564 184 183 169
-2.7842 0.176094 2.02992 170 180 192
16.9141 7.99267 1.3881 103 115 130
3.78448 7.48116 3.34896 186 186 178
-2.7928 0.24347 2.0321 168 174 190
16.6766 7.93581 1.3807 149 164 182
-7.32609 3.9958 2.45181 18 22 25
16.9633 7.95673 1.44736 29 30 30
-1.42322 -12.1057 4.22927 164 159 149
-1.78725 -8.92943 2.00277 53 34 26
12.9447 8.53021 2.86899 152 89 65
-1.91147 -8.79174 3.57545 50 29 21
-1.77716 -8.91808 1.8603 69 62 51
18.2212 9.10974 4.79918 137 85 68
6.21264 7.74743 5.58245 203 203 193
-1.82669 -8.8855 1.93343 61 44 37
18.0676 9.12008 4.80731 140 82 64
-1.17558 -12.9029 5.8177 45 40 37
-1.02344 -4.77282 1.77715 31 32 29
18.3956 9.50887 5.95311 121 125 121
-1.32932 -12.7227 8.70688 173 171 161
-1.37079 -12.5514 3.29819 153 149 140
-2.4598 -2.62277 1.92266 57 44 33
13.4721 8.60023 3.08498 183 179 170
20.8923 -6.59298 12.9757 200 206 221
-2.46792 -2.55631 1.79126 98 88 74
13.1849 8.54247 4.4317 138 87 72
2.67724 -2.24958 1.66779 146 138 120
14.6021 8.74604 5.24425 85 50 44
18.5872 9.26705 6.89988 150 136 120
-2.77284 0.100141 1.92574 171 176 188
14.0569 8.68206 4.87685 200 196 184
-2.84898 0.80798 1.96012 20 19 19
14.229 8.65557 5.01049 182 178 163
-1.27333 -8.40834 1.65301 87 64 57
20.8428 -5.78521 12.2791 35 31 34
-0.806105 -3.10334 1.60197 183 181 160
19.2121 8.39976 7.419 12 13 14
20.9254 -6.46098 13.2311 32 32 35
-2.45111 -2.69005 1.56862 86 80 73
13.2232 5.8574 0.467989 145 127 22
18.2881 9.17167 4.66136 161 153 145
-2.90448 -0.765907 1.6454 111 78 69
19.5422 4.08442 0.383525 89 88 84
20.2796 -10.7933 8.82027 18 18 18
-0.749012 -4.36317 1.54175 142 163 183
19.5214 4.16722 0.3841 89 89 86
17.4409 9.05063 13.2194 149 98 82
-0.794054 -3.75409 1.51893 24 26 25
19.5086 4.25332 0.388529 101 99 95
15.0219 8.76854 13.2962 199 188 172
-1.44557 -3.14664 1.4646 74 24 22
18.7568 9.21445 1.75692 134 129 122
-1.15505 -2.77797 1.51149 181 181 176
18.4224 9.15557 3.18472 149 144 133
-2.461 -2.55633 1.52859 132 133 129
15.8482 8.87327 2.88012 145 89 66
-2.461 -2.55633 1.52859 132 133 129
17.7861 9.44873 3.66987 31 32 29
18.6286 9.18965 1.75646 125 122 117
-1.37892 -4.2401 1.331 15 21 31
16.7113 8.95296 3.94434 187 182 161
-4.04335 -5.2621 1.06731 17 20 21
16.042 8.90016 3.94963 176 170 156
18.4498 9.15247 3.95617 165 162 153
16.7328 8.92836 12.7818 151 106 93
-2.70211 -1.82834 1.15192 210 183 151
